1.986748154,2.009735931,2.037909975,2.065275541,2.093346961,2.127280464,2.157882441,2.184089108,2.214781194,2.251137625,2.282337825,2.32228109,2.374569271,2.413719077,2.438481498,2.472855534,2.519752201,2.57019315,2.605678528,2.64564432,2.686388553,2.712838013,2.758953736,2.829796838,2.884623086,2.9724417,3.053902632,3.12651287,3.207573318,3.291544783,3.360017521,3.427036002,3.486522882,3.545026073,3.615028159,3.71759209,3.795551291,3.879592841,3.940268658,4.004651454,4.069352134,4.129144383,4.198275416,4.270870635,4.324813316,4.352494264,4.45134621,4.531625714,4.593760794,4.682377873,4.798423095,4.894476659,4.992077093,5.059220725,5.122810062,5.206235868,5.306169121,5.433883442,5.609966209,5.775761545,5.926771516,6.064482917,6.228823996,6.379768887,6.563115431,6.731368737,6.898358016,7.076072755,7.29557799,7.519881524,7.737091486,7.959415127,8.159814776,8.414973092,8.624296024,8.830067164,9.060743398,9.317105669,9.571593175,9.816278837,10.024442868,10.279701306,10.509173585,10.708166535,10.927198698,11.126712277,11.307170331,11.459529431,11.608026365,11.759063869,11.769796838,11.798431438,11.833438738,11.885797005,11.925960536,11.930062993,11.851082558,11.735515414,11.7001652,11.464252639,11.298865296,11.1664553,11.035849985,10.922082516,10.810019607,10.64617663,10.422451295,10.186153269,9.992481749,9.817700555,9.631130116,9.442214342,9.246658045,9.038133578,8.811860164,8.590222352,8.401792166,8.223626882,8.038956239,7.875804097,7.707723499,7.532123816,7.376368111,7.220026699,7.05841642,6.893071628,6.763427475,6.661747111,6.522286096,6.392106295,6.270098869,6.14785616,6.016975512,5.887641734,5.787080222,5.693196779,5.579989988,5.492449209,5.3998348,5.300226941,5.194459138,5.090328313,4.999616203,4.912105461,4.821170581,4.738075174,4.621276542,4.513881774,4.438413082,4.373151725,4.304939302,4.24562513,4.182871803,4.114504193,4.055265112,3.991728338,3.931222727,3.872431688,3.799748863,3.750259063,3.706203329,3.631565642,3.544850861,3.472826332,3.41643319,3.374800384,3.323348212,3.301987401,3.267150307,3.199238246,3.149282883,3.105119519,3.069383839,3.025648492,2.984876726,2.947428977,2.912659464,2.874308122,2.836224605,2.797137374,2.761429227,2.726782362,2.698057653,2.670732135,2.634147929,2.603435818,2.581864753,2.574590964,2.5369655,2.496689333,2.443878019,2.420955321
1.969349631,1.994389888,2.019352551,2.049559051,2.076626757,2.10710859,2.138188645,2.159566977,2.190634517,2.22813483,2.268738893,2.310261566,2.354389888,2.381645321,2.416820325,2.459739685,2.496634266,2.538287097,2.583356556,2.626145759,2.660239456,2.713533853,2.759444329,2.823276459,2.890555254,2.952930625,3.04060156,3.123301489,3.201245672,3.266459472,3.325653498,3.392992366,3.465960536,3.545716908,3.628063911,3.712581035,3.791080889,3.848708022,3.912387468,3.965394018,4.029116015,4.088657962,4.138643361,4.157255851,4.236501606,4.337543699,4.402387051,4.488085603,4.607404781,4.696091944,4.773450419,4.88496016,4.999093071,5.088123149,5.140043386,5.222968587,5.331379584,5.455251763,5.642963581,5.848003838,5.991439656,6.111156814,6.263941429,6.417559551,6.581585249,6.738036794,6.91012974,7.088808143,7.264114972,7.451326186,7.643616036,7.835998498,8.048179884,8.254701932,8.45472863,8.689742606,8.928436027,9.183246423,9.38963581,9.589154395,9.838693421,10.068949147,10.271844312,10.477718076,10.695603855,10.883470861,11.0439723,11.195550457,11.349301239,11.440423845,11.465036085,11.510355847,11.543575988,11.604742397,11.6659864,11.645591757,11.572045388,11.490354178,11.382343665,11.158971257,10.959495223,10.794530891,10.700777606,10.58250219,10.504710692,10.485287222,10.339453506,10.119960786,9.924449543,9.727413959,9.542840933,9.365091152,9.184147512,8.996583372,8.801017062,8.599476034,8.394037796,8.202871803,7.992772934,7.790062993,7.631729173,7.474071169,7.31803012,7.168822327,7.018348004,6.854903008,6.704343582,6.584421176,6.468576196,6.339607859,6.216964666,6.096208752,5.97336031,5.849302908,5.71656001,5.61982312,5.523476701,5.444476242,5.353486296,5.271001627,5.173461266,5.059210713,4.966633849,4.882397063,4.796272997,4.715773226,4.622743315,4.520334571,4.420323725,4.339496058,4.276444871,4.210610321,4.149942013,4.092312377,4.03934087,3.985480789,3.926882483,3.85480539,3.793408702,3.740687497,3.69560302,3.668733052,3.59811272,3.539476868,3.492417504,3.437671353,3.353281882,3.269570731,3.234378207,3.215575487,3.173907638,3.115261775,3.050716282,3.01061783,2.968436861,2.927912895,2.887854491,2.854048642,2.827271286,2.796398982,2.760996204,2.725438238,2.704192566,2.695639731,2.657906637,2.63476117,2.589251179,2.569667515,2.525566726,2.476524968,2.449697551,2.417401026
1.947911226,1.976741062,2.006156606,2.030370865,2.057170748,2.090365859,2.114948062,2.14500438,2.182209336,2.21813775,2.26027867,2.301683701,2.340760919,2.379365066,2.416449877,2.451877686,2.49382337,2.540407159,2.590347503,2.630673731,2.678138584,2.731145134,2.7847449,2.843115431,2.897080639,2.955611364,3.036601727,3.098706771,3.157475283,3.232748738,3.303283968,3.382885153,3.441503483,3.543456677,3.633605607,3.707927913,3.759264945,3.806819907,3.864659797,3.922562263,3.983786242,4.032399983,4.070418422,4.137927496,4.247267114,4.339363397,4.433429561,4.515711485,4.60924951,4.699508573,4.804800801,4.907001794,4.954731968,5.011803429,5.120026699,5.249753452,5.374699428,5.486982604,5.634325643,5.836304702,5.982596471,6.1018756,6.227294648,6.392346585,6.561803846,6.754804556,6.912377456,7.054436611,7.197619624,7.363545117,7.541267365,7.71622377,7.919078887,8.110375037,8.291165992,8.548384298,8.815932585,8.995121605,9.199666263,9.429599099,9.649264528,9.853323599,10.06779275,10.281573568,10.482719119,10.618180301,10.775134955,10.956346419,11.089795169,11.154430771,11.16032289,11.225904635,11.257430228,11.324726545,11.390283259,11.377002211,11.312276501,11.231774227,11.096125318,10.836526636,10.639205707,10.472744566,10.348817321,10.249021735,10.170426766,10.180211088,10.235765717,10.101398356,9.899599516,9.707169496,9.513355304,9.317829043,9.113439573,8.931312002,8.757068958,8.576520796,8.378126069,8.188504443,7.988617913,7.782881816,7.587893705,7.422598974,7.277781486,7.140197739,6.982722456,6.830318301,6.671986984,6.511120103,6.385813692,6.264794961,6.144219265,6.038844437,5.928813984,5.816638438,5.693076634,5.575582162,5.472878061,5.376614242,5.289779317,5.230587794,5.154410746,5.065285553,4.979334195,4.887513245,4.800362939,4.709923658,4.61246089,4.522281924,4.423965625,4.333451254,4.259954946,4.188899086,4.126776522,4.071056694,4.017629636,3.968758083,3.918665054,3.851481373,3.787716824,3.738334654,3.69023153,3.638173626,3.583785407,3.529297067,3.475094072,3.414518376,3.361727087,3.341214801,3.263568479,3.17756706,3.146008927,3.091996162,3.049016729,3.023861332,2.975332694,2.936295524,2.893711568,2.867029327,2.828112302,2.781012891,2.749900296,2.719215719,2.68587293,2.657010554,2.632205582,2.61644654,2.560676651,2.542499687,2.517995077,2.491876017,2.460813483,2.430872304
1.928655459,1.955560469,1.983223896,2.014093697,2.047972133,2.072779609,2.105038588,2.140268658,2.177794001,2.217579575,2.261745442,2.302442118,2.339011305,2.380406324,2.423510909,2.465899629,2.507454841,2.541205623,2.575667265,2.627855325,2.670451796,2.717043094,2.765236327,2.818786033,2.87638313,2.945519169,3.014199658,3.093778315,3.164381127,3.229619957,3.292298194,3.339400108,3.440820158,3.548788119,3.605396521,3.656385633,3.693495474,3.76114722,3.827875349,3.876001001,3.918459806,4.007049351,4.079709649,4.156785282,4.250571107,4.312741229,4.380750907,4.471135122,4.569306245,4.640807643,4.737882441,4.817295899,4.890494347,4.986685578,5.090941554,5.205512494,5.347681782,5.486637187,5.600985357,5.794198824,5.96031705,6.066124901,6.24424513,6.414320637,6.561969046,6.721674523,6.845001043,6.97521088,7.101225648,7.252520963,7.445353969,7.630590297,7.806202495,7.915932585,8.146048142,8.42344583,8.649228651,8.805332277,9.027911226,9.246790705,9.453059947,9.675781569,9.886571274,10.072263151,10.230334154,10.341518502,10.520472237,10.709893621,10.822049143,10.867401443,10.874119561,10.939163155,10.979754704,11.044542989,11.108417671,11.110299946,11.061443411,10.976257978,10.84811564,10.549957866,10.35449418,10.192853865,10.05676943,9.953384506,9.883852989,9.892510951,10.012813817,10.103921405,9.937555379,9.745823704,9.554079513,9.363777064,9.160806808,8.959405949,8.745775312,8.539628718,8.350224855,8.175080723,7.972280672,7.754114555,7.543602687,7.361274874,7.184378624,7.068443536,6.949599933,6.813230153,6.6571866,6.512624421,6.384682324,6.257861583,6.115789913,6.0001652,5.895746527,5.787613366,5.670013767,5.549966209,5.433810855,5.336398148,5.247693463,5.170950732,5.112767928,5.065400693,4.998096867,4.882507196,4.783657753,4.703641066,4.595084894,4.515100747,4.431031663,4.350141421,4.284482083,4.234434108,4.170239039,4.104589713,4.022425431,3.946401068,3.894110383,3.846054816,3.794264737,3.744444537,3.690249051,3.64098202,3.593326937,3.547271286,3.504379459,3.441971549,3.419709649,3.409667515,3.308397647,3.20352843,3.160163531,3.115639731,3.078897835,3.061631972,3.023998999,2.96925535,2.902281924,2.88470068,2.876590881,2.82751408,2.785313087,2.744688999,2.69889116,2.645591757,2.60461224,2.585451587,2.569324601,2.523564307,2.487560803,2.47037003,2.451704977,2.417488632
1.911547286,1.941836386,1.975807434,2.005540862,2.030080514,2.068511952,2.104996037,2.139457678,2.176587543,2.213101665,2.255638063,2.294289767,2.330178132,2.371653248,2.40854032,2.447637562,2.485355638,2.536272162,2.586457803,2.628090609,2.671683284,2.70269826,2.763777064,2.825291394,2.852574361,2.936593384,3.031072546,3.090832256,3.156136165,3.209738434,3.245414042,3.297822369,3.375125777,3.451871011,3.537083976,3.580383797,3.657639648,3.734720287,3.783742022,3.869005048,3.958022611,4.02621501,4.088212423,4.151441325,4.198360519,4.252941471,4.328004672,4.407082725,4.514880481,4.614102874,4.702194318,4.787432314,4.86888824,4.967592508,5.074066163,5.182316966,5.287701806,5.400783447,5.561640315,5.749362146,5.882875975,6.039820617,6.198161946,6.339279963,6.456171207,6.590268241,6.744792458,6.913083309,7.069139377,7.231355388,7.385011055,7.524004005,7.618745985,7.821505986,8.060607401,8.287258771,8.428171541,8.629642485,8.816120312,9.043860498,9.28246381,9.501423387,9.674867965,9.847311335,9.954993951,10.078908681,10.303822953,10.45172667,10.556691002,10.554335656,10.597417713,10.663379917,10.70906512,10.768451879,10.83344291,10.843247257,10.808973343,10.721742939,10.629711735,10.304163364,10.079143966,9.925833716,9.785351466,9.677598765,9.615280964,9.67121355,9.843759543,10.041423387,9.992907263,9.791651579,9.588986692,9.386884986,9.179484377,8.966849944,8.74800801,8.531398774,8.313502983,8.126289266,7.932407492,7.722679071,7.509308748,7.309730091,7.143038672,6.975716491,6.848865713,6.750679571,6.620076759,6.478888657,6.347204539,6.215570481,6.075148304,5.95180927,5.856414,5.764302699,5.657904134,5.539876517,5.424737391,5.306754829,5.207762713,5.126882483,5.042865963,5.032883901,5.005758625,4.906145759,4.754382379,4.677792332,4.599472696,4.499113929,4.42324976,4.353893455,4.294406575,4.2456827,4.18168537,4.120065913,4.0579859,3.950473489,3.873660673,3.825091986,3.781223979,3.735611364,3.688664636,3.641790497,3.591664928,3.541151391,3.495979308,3.458987109,3.410483501,3.358373034,3.309116015,3.266824913,3.225292228,3.17583747,3.099357557,3.059028826,3.02612657,2.95877769,2.885389012,2.888625422,2.86881899,2.834890493,2.779874014,2.739480205,2.702340328,2.693614785,2.665913813,2.61228401,2.567307163,2.531906887,2.478947895,2.429843561,2.417220808,2.395925076
1.897915815,1.930615327,1.961380001,1.993228484,2.033414543,2.068028868,2.100828501,2.135873347,2.175633891,2.214666055,2.252964833,2.288137333,2.324005674,2.354707772,2.384278503,2.4364966,2.506964248,2.540544825,2.566163281,2.595323516,2.620824329,2.643787076,2.735800759,2.768910767,2.840189396,2.92390305,2.988821493,3.056758583,3.098659213,3.152802136,3.233034083,3.270504359,3.328554503,3.4227308,3.49231488,3.570767177,3.630131409,3.679934087,3.795966793,3.887469859,3.953709899,4.02691836,4.061935672,4.095220892,4.159493555,4.216730216,4.301219807,4.420326228,4.509383839,4.582467148,4.697961704,4.788335906,4.870502691,4.968536148,5.064875057,5.192459222,5.309320429,5.41542614,5.554088691,5.7102624,5.860451379,5.964079096,6.063797088,6.205726086,6.385217972,6.561385841,6.726104877,6.883227233,7.01986734,7.143644404,7.239217388,7.397160736,7.574527554,7.765052772,7.957640482,8.102402904,8.253678194,8.430324142,8.632125485,8.872320721,9.094068666,9.277242501,9.456826999,9.603166326,9.700564015,9.891502232,10.083491719,10.181127195,10.268282508,10.248020525,10.323479204,10.396417338,10.444605565,10.502605648,10.547269617,10.571293646,10.566758166,10.476591715,10.394642693,10.116716866,9.834555922,9.656741062,9.511187685,9.393172584,9.360267824,9.499996663,9.724165033,9.960996204,10.01770723,9.799278295,9.581440073,9.373801677,9.165101998,8.947681782,8.722266906,8.50027867,8.282150098,8.07369071,7.874935547,7.68181219,7.461974052,7.22612657,7.051430478,6.916877894,6.787524092,6.658703433,6.550222352,6.440494765,6.32034208,6.18561929,6.035152476,5.900054232,5.792471737,5.704332735,5.608954987,5.495708147,5.392275666,5.294016937,5.196206249,5.087727671,4.998019273,4.929949522,4.894484168,4.834266405,4.706862459,4.628870719,4.560270327,4.491417129,4.420854366,4.352932293,4.292697009,4.22839431,4.148510283,4.080162697,4.019697134,3.921413374,3.846197489,3.806927537,3.757295065,3.7134621,3.672580201,3.624875057,3.577635476,3.528558675,3.48540403,3.445027742,3.403790413,3.34595553,3.291309499,3.245273873,3.208023862,3.168025531,3.126928372,3.034454132,2.97441909,2.939967461,2.8993659,2.873629803,2.856201243,2.82354178,2.787237912,2.751499729,2.73457678,2.690078011,2.652415001,2.62625339,2.603748696,2.575672271,2.523556798,2.4376555,2.396060239,2.393880105
1.903327354,1.930540236,1.963334863,1.994249718,2.025214634,2.05996162,2.096355596,2.132083768,2.166855784,2.202168454,2.240624922,2.272032873,2.298417254,2.324018189,2.363037837,2.430932377,2.464310208,2.493172584,2.529256185,2.558331317,2.579622043,2.609125193,2.67833382,2.738826916,2.78950315,2.850269075,2.921790497,2.97057945,3.042754161,3.112535981,3.183071211,3.244723207,3.309977056,3.408030537,3.486032289,3.526691419,3.588969171,3.707292145,3.798847774,3.851005799,3.907604188,3.953039089,4.014130408,4.080630762,4.129722581,4.185622627,4.280266989,4.370488507,4.44745651,4.532769597,4.631956948,4.719580326,4.832634433,4.94433941,5.048740562,5.152946477,5.263239748,5.391925243,5.541060448,5.67357557,5.750460974,5.858686746,6.02887489,6.197260857,6.32315548,6.465532518,6.640188561,6.772989028,6.905494139,6.995868341,7.149331275,7.309750115,7.46745067,7.649100163,7.80878061,7.904073255,8.099364232,8.298439781,8.490957407,8.702315298,8.899731342,9.05019315,9.246127404,9.36156439,9.487376413,9.697913312,9.818123566,9.921193108,9.984882566,9.958570773,10.048136498,10.132686162,10.184914271,10.240599057,10.269488966,10.306931709,10.312771265,10.228569522,10.165248008,9.969967044,9.642478829,9.416746068,9.261360811,9.154844604,9.182054983,9.389095157,9.643840474,9.903231405,9.992922281,9.756714363,9.529657503,9.320337074,9.120085103,8.895003129,8.674431605,8.45572984,8.231386258,8.010742147,7.803396604,7.631493888,7.439471862,7.23355054,7.026758166,6.849766802,6.72983188,6.610647866,6.494452463,6.390814734,6.286641358,6.161592758,6.027485712,5.896244629,5.789488131,5.674979767,5.576318051,5.472680322,5.362224354,5.253845897,5.157038922,5.059896542,4.972540987,4.899212382,4.828479413,4.754167119,4.681336615,4.610989112,4.539855659,4.471678278,4.412173877,4.351370406,4.289295399,4.219230737,4.140710859,4.047022652,3.971568979,3.909288724,3.847894539,3.790695424,3.746542072,3.693853406,3.649494806,3.604978516,3.558164449,3.510516875,3.463807935,3.421201452,3.385090317,3.339870677,3.283822953,3.229086813,3.183178841,3.138812732,3.093678194,3.042188478,2.974341496,2.929990405,2.905378165,2.871877686,2.808949147,2.787345543,2.767611697,2.746861624,2.714892996,2.647191189,2.606599641,2.593020733,2.561352468,2.54831171,2.53999416,2.476051896,2.392586041,2.354457469
1.89371574,1.924698177,1.954088691,1.983561804,2.013743273,2.049033415,2.082946894,2.117293396,2.153016562,2.186274248,2.220127654,2.243821284,2.269101831,2.294069501,2.359428476,2.391239414,2.424539652,2.463033666,2.493009887,2.517739769,2.527907054,2.595123274,2.653568896,2.690808894,2.757594593,2.835285971,2.892895582,2.944505444,3.019027992,3.09592591,3.147458179,3.18324392,3.234961412,3.313451254,3.389077635,3.471424638,3.606505361,3.71781486,3.759217388,3.800742564,3.858091861,3.931035001,3.996398982,4.04582871,4.100672479,4.160236953,4.230982437,4.32262317,4.397984231,4.481808018,4.569088482,4.681291561,4.810948229,4.930545242,5.048933294,5.146784031,5.254058654,5.378869467,5.482997789,5.549100163,5.652354929,5.801034583,5.933797505,6.084321889,6.187631722,6.352453381,6.525692712,6.665226315,6.749162738,6.910259897,7.026557924,7.171360394,7.361647824,7.511080889,7.615206708,7.836381461,7.991521422,8.113326102,8.304809979,8.527907054,8.684606399,8.853983563,9.027363064,9.098401402,9.301594427,9.466143256,9.572439197,9.671191022,9.716836177,9.663564307,9.781173918,9.870401735,9.922326978,9.984584707,10.004446206,10.046033958,10.053490468,9.988732218,9.928679655,9.852014518,9.536348087,9.248632931,9.071426307,9.008925785,9.093820867,9.339535272,9.601118852,9.818278753,9.815898377,9.624259313,9.429536523,9.229196946,9.033615619,8.822610655,8.608602061,8.395421968,8.176930458,7.941806349,7.732908932,7.550480998,7.380172709,7.203003629,7.015592174,6.825242168,6.670289934,6.56183138,6.45382337,6.353637312,6.260417171,6.148972508,6.021383338,5.906159109,5.783213049,5.66177381,5.559097243,5.460618247,5.356292186,5.238384715,5.122397063,5.048925785,4.97927162,4.907705144,4.830071336,4.753949355,4.679161487,4.616470735,4.543314839,4.470539402,4.404234283,4.339874014,4.273643986,4.207972133,4.136455717,4.049375495,3.967581661,3.900961161,3.846370197,3.790302449,3.737653832,3.688224104,3.637204956,3.590773852,3.548305035,3.503460849,3.45074465,3.405605106,3.351644904,3.302180134,3.261816361,3.228313379,3.168073088,3.116868716,3.070742981,3.028046389,2.996125318,2.961921488,2.936988862,2.898059322,2.811317008,2.757519503,2.7571866,2.739367569,2.702272746,2.678609153,2.6256827,2.58993951,2.554731968,2.503840474,2.461078804,2.421944016,2.380806808,2.319983313
1.8821793,1.909066789,1.939095574,1.969955363,2.002206833,2.035319344,2.063796254,2.099897376,2.137960869,2.164522965,2.190266572,2.211900213,2.239005465,2.29607192,2.333704893,2.359248258,2.395086563,2.429370489,2.456448208,2.470612824,2.483265613,2.552749572,2.611923574,2.677808185,2.7249927,2.787280464,2.850043803,2.914003588,2.984854199,3.037077302,3.078337157,3.104518794,3.176378124,3.275475366,3.374217179,3.463725335,3.542187643,3.615754036,3.678675066,3.739098077,3.839719661,3.907063535,3.962332819,4.004498769,4.054586792,4.111570648,4.188280839,4.279400943,4.353840891,4.437704727,4.529613283,4.628848192,4.757741438,4.889720913,5.015863335,5.143114597,5.246356848,5.334928872,5.400433023,5.504914271,5.596968003,5.678666722,5.823283968,5.952490092,6.068940803,6.232468399,6.397032247,6.524426182,6.660888574,6.774510867,6.933002378,7.110682074,7.189935339,7.347808602,7.527738517,7.709560719,7.784346085,7.939118101,8.153279379,8.348745568,8.495525427,8.708410162,8.793092487,8.867600017,9.087297985,9.229151892,9.337412707,9.437193275,9.441037921,9.391505569,9.531124275,9.619716324,9.668745568,9.730973259,9.76330733,9.795230904,9.783441659,9.774320637,9.689177756,9.67204956,9.542282758,9.241674523,9.056803638,9.015921739,9.101960703,9.28651871,9.438146928,9.54548663,9.520346252,9.42929373,9.283652747,9.117945017,8.931549789,8.733422886,8.524357766,8.319244921,8.105241333,7.864845855,7.655237579,7.46361103,7.30168537,7.143606858,6.979974135,6.805445747,6.636021025,6.513087481,6.411289475,6.305684369,6.203833799,6.11386759,6.012179717,5.900652455,5.784524634,5.662166785,5.553643152,5.463619373,5.361776313,5.248341746,5.142694089,5.05485545,4.973439573,4.902606483,4.817971716,4.738305452,4.670203162,4.599567811,4.518404739,4.439679613,4.370213174,4.310621167,4.249194443,4.178504026,4.123057027,4.060065913,3.960453047,3.876862042,3.818576613,3.770676234,3.722377873,3.676529974,3.6313654,3.580774269,3.526591298,3.46771015,3.424180051,3.371789245,3.315731509,3.277525343,3.238535731,3.171131784,3.121474281,3.085886279,3.04735472,2.997474448,2.951926912,2.949829377,2.919182345,2.876150348,2.804969338,2.726161612,2.719513579,2.734754495,2.705101164,2.667533269,2.637544533,2.632563514,2.626305953,2.562533895,2.502608986,2.460002503,2.415801594,2.321923157
1.8680272,1.89668683,1.924575529,1.959557799,1.987636728,2.017908306,2.047927079,2.079177339,2.109989571,2.137410204,2.157574569,2.182519711,2.223228902,2.265016895,2.288632931,2.33246089,2.362196821,2.390851445,2.415538776,2.422284427,2.455439489,2.518768512,2.572235618,2.635339368,2.699799758,2.759244087,2.812913938,2.878705936,2.936901256,2.974496683,3.025888782,3.102506362,3.171532268,3.24696842,3.340584039,3.421016228,3.499919069,3.558792708,3.629403029,3.708173209,3.781291561,3.845256351,3.906755663,3.952846356,4.011552292,4.080037545,4.163112928,4.243147136,4.336845355,4.421242334,4.509611614,4.61481123,4.726566268,4.832551833,4.958116057,5.080581536,5.184742397,5.257312586,5.356870385,5.439923241,5.508265821,5.633910141,5.749922823,5.81592007,5.951030829,6.145570898,6.331072546,6.47164991,6.596087773,6.745666013,6.869663343,6.932982354,7.10352843,7.246718952,7.414807059,7.523968962,7.639230737,7.807418965,7.987226232,8.164527971,8.352532644,8.504926787,8.545295565,8.717904134,8.873749948,8.98786784,9.108591214,9.208294189,9.130913187,9.17016812,9.296868716,9.376049393,9.425439072,9.472188061,9.532105461,9.557593759,9.522100872,9.546833257,9.456401485,9.428420174,9.42894581,9.315165825,9.06762171,8.936588378,8.964777439,9.074650202,9.191095908,9.290843936,9.29340453,9.214644362,9.106611322,8.972882233,8.801560219,8.611738351,8.424196738,8.224815819,8.008954987,7.787837804,7.575100747,7.377742272,7.228216595,7.102597305,6.956363105,6.815144967,6.660953652,6.526298444,6.421882274,6.321052939,6.21484961,6.090329148,5.981557716,5.876781111,5.7692687,5.658815235,5.554894664,5.463744525,5.381477619,5.290089692,5.180041717,5.072178883,4.967862834,4.874550081,4.790493513,4.708003838,4.632129657,4.562635685,4.49365233,4.425374828,4.348904927,4.272352426,4.210835593,4.153113345,4.08566935,4.019992491,3.927157816,3.855573818,3.798309624,3.75312002,3.708290851,3.662147595,3.62452964,3.575688123,3.51549539,3.44682241,3.388484419,3.353847566,3.292255642,3.259413458,3.231609862,3.194872972,3.119236578,3.039958283,2.999699637,2.942302783,2.912389137,2.89847983,2.88831755,2.851267782,2.806688916,2.744433691,2.662897668,2.651256101,2.648878228,2.636936298,2.616944641,2.5944825,2.593764132,2.567149472,2.514145426,2.466552918,2.439097243,2.379490217
1.857191607,1.886286763,1.915349381,1.942509699,1.968788953,1.998892829,2.029016729,2.050470151,2.073082475,2.102417922,2.131718326,2.164640607,2.22526386,2.233874265,2.256373952,2.292224772,2.32665137,2.348430186,2.365235493,2.387672604,2.439307497,2.489888615,2.546897501,2.592963164,2.669077635,2.716782779,2.784354428,2.833891786,2.890835593,2.966286763,3.039497726,3.1002211,3.167559968,3.233574736,3.300780944,3.352173042,3.440617413,3.552702849,3.606042301,3.664858371,3.720277836,3.790049643,3.840453047,3.898140253,3.956320554,4.037100663,4.156765258,4.259311668,4.332199741,4.403240582,4.489777648,4.578920362,4.699165659,4.815396104,4.909499812,5.0190622,5.11334863,5.205124525,5.301984064,5.361618623,5.440711693,5.549403029,5.582029953,5.721120521,5.915054858,6.081443411,6.224861708,6.361314088,6.536525802,6.638894498,6.723974803,6.869560719,7.011209378,7.143539277,7.278171958,7.377897459,7.518569939,7.666759,7.846728964,7.99164407,8.171604022,8.237541196,8.377710567,8.533278545,8.627332193,8.704527971,8.878267907,8.973099996,8.833606441,8.955323516,9.052280672,9.117109007,9.187368904,9.226145759,9.279457678,9.328131492,9.288623754,9.302483,9.248823161,9.171274457,9.169837721,9.177554545,8.935642234,8.726644696,8.728319219,8.838607484,8.949158567,9.049211964,9.062335322,8.984561345,8.896662634,8.792889742,8.652162196,8.481218139,8.305410705,8.119225731,7.898964582,7.69839723,7.495982646,7.305107004,7.161913979,7.050309124,6.925443244,6.799476034,6.6571866,6.53065621,6.415922573,6.308074757,6.205117851,6.095405281,5.993119186,5.887619207,5.789408035,5.684881732,5.600925285,5.513542197,5.424942639,5.322253556,5.208899086,5.090183138,4.971296984,4.885438238,4.791201869,4.696187059,4.608486087,4.526099036,4.45656001,4.394444954,4.324515456,4.250648701,4.177975888,4.109483125,4.055475366,4.001540194,3.927222894,3.833800008,3.778550749,3.730612824,3.693548037,3.656936298,3.621390847,3.57725001,3.499606191,3.428079763,3.377140712,3.321067957,3.272629427,3.228583705,3.195994326,3.15895457,3.136229611,3.068735555,3.005243836,2.959889033,2.894347336,2.851435485,2.822490509,2.796451546,2.78660715,2.703704476,2.645766968,2.619445163,2.597783989,2.585221309,2.594099537,2.56595553,2.53070043,2.51635059,2.507084394,2.469206124,2.419691294,2.380806808
1.840321221,1.866693087,1.89360811,1.920730883,1.945726086,1.979654583,2.005550874,2.022979433,2.043636895,2.068356764,2.093900129,2.138030954,2.180782612,2.209567394,2.229095991,2.25306996,2.289156064,2.311931083,2.325016895,2.362847608,2.411186016,2.454841267,2.51092153,2.575462017,2.619482708,2.694340662,2.75567978,2.81529932,2.890707939,2.968053898,3.03158066,3.097425222,3.139491052,3.199781403,3.247897042,3.301501815,3.388091444,3.485341454,3.564727379,3.624572191,3.66540403,3.732602728,3.789448917,3.86850194,3.945860415,4.035158316,4.173570564,4.246991782,4.29166326,4.365244671,4.44969922,4.542333653,4.65241667,4.751596512,4.871318677,4.965177089,5.046680572,5.15367736,5.215276793,5.28532143,5.383960619,5.420607401,5.479118101,5.638683409,5.770109716,5.902004088,6.054498352,6.200822661,6.358896166,6.544537983,6.701823036,6.886340995,6.962195152,7.017789829,7.156004339,7.226081515,7.346166618,7.510610321,7.624497935,7.810004589,7.95468441,8.022060823,8.199137291,8.303998999,8.34027283,8.462115056,8.659145634,8.702790872,8.580440532,8.761223979,8.804856702,8.865197113,8.947338868,8.990616161,9.048013016,9.108285845,9.070968253,9.093002378,9.039124776,8.914308957,8.908722206,8.991317008,8.887356389,8.582745818,8.528885737,8.6191448,8.728834842,8.835461182,8.843310667,8.746128238,8.671267782,8.597906637,8.497104835,8.337767302,8.169536523,7.976170373,7.778644195,7.596531642,7.417204956,7.250045472,7.106539569,6.991215218,6.889892787,6.769114347,6.640376288,6.518436444,6.398864461,6.300010012,6.188525301,6.078599975,5.971345376,5.878062659,5.786431939,5.689189437,5.595543782,5.499187351,5.39810521,5.300249468,5.200105961,5.092540987,4.983083726,4.891788411,4.794468316,4.698547411,4.61011055,4.509584081,4.437384339,4.376353093,4.306090693,4.24228109,4.188360936,4.125742773,4.055572984,3.985265529,3.917598765,3.818211172,3.741858913,3.693838388,3.647297151,3.6105928,3.589206958,3.560334571,3.501435902,3.426612991,3.349339619,3.303944767,3.264542155,3.204674815,3.158771849,3.128082266,3.094962246,3.06094364,3.001206458,2.952565183,2.901258187,2.854559259,2.802025781,2.757129031,2.721460932,2.683772892,2.651486379,2.627507405,2.598161946,2.579093905,2.548802303,2.520443035,2.496982187,2.490459305,2.470692921,2.456876225,2.427858663,2.395326853
1.819030495,1.843272287,1.865216303,1.897159902,1.92734888,1.951105085,1.974963915,1.997458596,2.018649201,2.034941388,2.064274331,2.107376413,2.147810271,2.159682116,2.199702974,2.228082266,2.25306245,2.280530641,2.314449126,2.354575112,2.399694631,2.45146719,2.498376371,2.539716324,2.604141671,2.676596721,2.75076384,2.811019148,2.885807017,2.922261065,2.981540194,3.062918527,3.11572984,3.187223729,3.243606858,3.300528138,3.354788703,3.448892412,3.522719119,3.560674982,3.617741438,3.678792708,3.769950357,3.861606107,3.950926536,4.002611489,4.066428601,4.155999333,4.228494431,4.331266113,4.415159985,4.497654666,4.601490134,4.705848734,4.81861249,4.911026657,5.01290476,5.06741813,5.150808894,5.245475783,5.294515039,5.295135789,5.387214551,5.520047557,5.6584548,5.746213341,5.908374286,5.958735138,6.21519753,6.448406825,6.655189187,6.830348338,6.813207626,6.873963539,7.012893913,7.045883776,7.190158108,7.279856493,7.444099954,7.656759418,7.726448625,7.874299779,8.004617246,8.095564641,8.092420842,8.305868758,8.440025865,8.429986233,8.38125485,8.535120771,8.508000501,8.587681782,8.697466939,8.760743398,8.842865129,8.91217638,8.870906512,8.869935339,8.834885487,8.655776563,8.676186225,8.764230111,8.793860915,8.615805765,8.431270285,8.450450962,8.557385174,8.642705769,8.633937675,8.511795086,8.439652914,8.376141171,8.308226607,8.182459639,8.003335697,7.812312377,7.647580827,7.476962163,7.318265404,7.176754412,7.054516708,6.935277627,6.845411539,6.73690793,6.623145467,6.513735764,6.402003254,6.291594844,6.169211964,6.043134621,5.928611239,5.828610404,5.733277711,5.634423261,5.531443828,5.44797547,5.351909391,5.25849902,5.165962204,5.061183096,4.966748988,4.88185641,4.802800884,4.709633307,4.612298194,4.51974636,4.449924492,4.374873806,4.300476409,4.239530266,4.183755371,4.131780068,4.092209753,4.022768345,3.909501481,3.80252722,3.729176088,3.669156064,3.628779776,3.571725835,3.512411664,3.465542531,3.417126528,3.366658045,3.30134913,3.248017187,3.217785658,3.188735555,3.13399441,3.093780818,3.057747278,3.015894205,2.967032664,2.907821117,2.868038046,2.82993951,2.792246464,2.736624254,2.699571983,2.666617162,2.659904051,2.639121438,2.606952568,2.573852572,2.542231864,2.515694798,2.474056986,2.43484961,2.418680072,2.39189771,2.378198657,2.386115723
1.797990071,1.818106879,1.845965542,1.878269576,1.899132285,1.923008635,1.945635977,1.968458554,1.987759376,2.011695799,2.041509324,2.080596554,2.103747028,2.125836219,2.15894873,2.188779776,2.208949147,2.258018439,2.305070293,2.352404989,2.403011138,2.446010596,2.474179634,2.523341538,2.587641734,2.669335447,2.72947061,2.804018189,2.852449209,2.903878854,2.949911977,3.029613283,3.110428434,3.165407367,3.203453339,3.242017438,3.303121272,3.384009011,3.463690292,3.498687581,3.569973718,3.650410913,3.762386217,3.843008635,3.895484544,3.946799049,4.021111343,4.109981227,4.20177965,4.281298235,4.367166993,4.456507446,4.569083476,4.666103208,4.785527512,4.850388386,4.918776021,5.023702808,5.12587877,5.150909015,5.182895165,5.205074465,5.324829169,5.461006216,5.566596304,5.705596763,5.767438989,5.885879605,6.064738225,6.334001085,6.601153894,6.681708731,6.644628927,6.757778149,6.826453631,6.951457177,7.010022944,7.112799633,7.330863126,7.447746861,7.567303825,7.699593676,7.821923991,7.858858621,7.927834467,8.141830545,8.229614117,8.154340662,8.189393017,8.296652622,8.210088023,8.338280422,8.46324392,8.563031997,8.664797464,8.709433899,8.664687331,8.647816945,8.625978057,8.448090609,8.472344917,8.543813775,8.591443828,8.665963873,8.582638188,8.433758291,8.367615869,8.389992908,8.404062409,8.285786993,8.191185182,8.130929874,8.113256018,8.027797756,7.815053189,7.646819907,7.488496099,7.336988027,7.197146552,7.071927746,6.983403279,6.889289558,6.846482833,6.82166034,6.701622794,6.546467815,6.424112469,6.303824621,6.162949397,6.03284719,5.919249927,5.81548955,5.707721831,5.605253014,5.504603896,5.411679112,5.313024905,5.214575946,5.12025948,5.032853865,4.951583163,4.865994744,4.78014601,4.702862626,4.606836594,4.52053231,4.442550582,4.363747862,4.308383463,4.248919111,4.187650077,4.14243294,4.087366401,4.027691794,3.954177965,3.852652789,3.733110842,3.675298486,3.625177923,3.564572191,3.517502816,3.442472154,3.365316424,3.32458721,3.271245255,3.221560219,3.180831004,3.132327396,3.09247424,3.064387802,3.031918568,2.99630053,2.954254724,2.910371699,2.860296191,2.795575487,2.761549372,2.739965792,2.709070961,2.669821034,2.643281465,2.624413667,2.577154061,2.545227984,2.51208794,2.489222811,2.459016311,2.412052063,2.383294815,2.352642777,2.325542531,2.29118101
1.775290142,1.798445622,1.826802386,1.849880272,1.871881857,1.900756748,1.917642151,1.938116891,1.960674148,1.984565517,2.018791874,2.051864336,2.073530516,2.100020024,2.130919861,2.160820992,2.191320345,2.240922782,2.286597973,2.333261858,2.368857369,2.406983438,2.466335155,2.513319428,2.547590839,2.614616829,2.681042093,2.755854991,2.811699971,2.861480122,2.928803971,3.006079846,3.065721914,3.1277794,3.155190021,3.194409912,3.26652455,3.319811439,3.398108548,3.471915231,3.567498227,3.657051437,3.745851237,3.795371073,3.836716032,3.911626549,3.983225564,4.068040549,4.14451045,4.228214092,4.325664344,4.439384256,4.531327854,4.625379,4.721157232,4.775623045,4.872102123,4.977109007,5.000297026,5.04318635,5.081137207,5.128552,5.219311668,5.338981269,5.484857536,5.595734012,5.646194986,5.803582662,6.002115056,6.220834341,6.377616286,6.429111009,6.534005256,6.602230195,6.736810312,6.792617746,6.809055108,7.01643319,7.165578407,7.2847449,7.389366318,7.528401819,7.62394727,7.657660506,7.79730174,7.934567603,7.990863126,7.861937341,7.997398523,8.008128989,7.941956531,8.156858704,8.235373576,8.372659464,8.462029953,8.527952109,8.467867006,8.412517625,8.39459597,8.282605648,8.279459347,8.333805014,8.354069501,8.464928455,8.498458971,8.284492929,8.116086938,8.124627258,8.198083518,8.113388678,7.988868216,7.909099328,7.948529473,7.902974427,7.674072838,7.491021651,7.345243002,7.193174252,7.070904009,6.959018814,6.884521297,6.836713529,6.918417254,6.937360144,6.771304493,6.578356347,6.426840766,6.33390597,6.222704101,6.077328439,5.925963039,5.804023195,5.706883317,5.611615702,5.529584081,5.43822619,5.334015268,5.207084394,5.11239748,5.021407534,4.953910976,4.869256185,4.772426682,4.678292937,4.581976555,4.502117559,4.42914188,4.375477035,4.314781194,4.259061366,4.201071294,4.148257478,4.072766259,4.012921447,3.965021067,3.876854533,3.753487965,3.698859455,3.643122106,3.584291018,3.542440449,3.469089316,3.389946185,3.311488882,3.243752034,3.192950649,3.154897167,3.11832798,3.076527471,3.040143507,3.011781736,2.97706729,2.938923699,2.90039965,2.863016979,2.815366902,2.775000626,2.743417463,2.711358725,2.675843311,2.637146552,2.599658754,2.565867924,2.528597889,2.488557006,2.457234158,2.429911143,2.399556965,2.370261566,2.353959368,2.331902716,2.301573568
1.756189562,1.780371282,1.802090025,1.824724876,1.853234325,1.875596346,1.888531976,1.908516124,1.928833173,1.963207209,1.996116975,2.01776313,2.045193776,2.07438655,2.103924742,2.134802052,2.17831463,2.225444078,2.26968003,2.297986734,2.326531225,2.394550916,2.464573026,2.493893455,2.514122899,2.560321221,2.629156898,2.680371282,2.753116683,2.828575362,2.887459013,2.961598598,3.028309207,3.074089525,3.110608652,3.157320095,3.23419048,3.321969046,3.412213091,3.485096158,3.555068207,3.636974678,3.671008302,3.705244671,3.778538234,3.889817696,3.970532727,4.051050019,4.136360602,4.228201577,4.324823328,4.406729799,4.494007759,4.580750073,4.650969922,4.742237704,4.814377373,4.844200909,4.888131492,4.946121564,4.989764299,5.051646573,5.139978307,5.283491719,5.38848859,5.435152476,5.526540403,5.692776271,5.870350841,5.998067665,6.113767469,6.300450544,6.400756748,6.522393726,6.6011589,6.572211422,6.734412415,6.904853364,7.005615118,7.160434692,7.242233532,7.340156856,7.417027241,7.495527095,7.634817905,7.724270994,7.729422219,7.581373326,7.784533812,7.741882274,7.803126278,7.964423679,8.051391264,8.163276459,8.283306495,8.34978182,8.321267365,8.178284594,8.129961203,8.101601936,8.065010221,8.098580785,8.11404447,8.231974469,8.311891035,8.214037796,7.99072546,7.950276584,8.040127654,8.004279338,7.879583664,7.753138376,7.851845146,7.774569271,7.549302073,7.352344082,7.194553419,7.050434275,6.938624171,6.853473781,6.777952526,6.746146594,6.800422177,6.822626507,6.687383088,6.510061324,6.416180385,6.458494014,6.366267573,6.193576405,6.017651329,5.84382629,5.721818864,5.634656043,5.564971841,5.4875583,5.375537942,5.232925618,5.103093738,4.977451921,4.897913312,4.839337533,4.775202536,4.698469818,4.604809144,4.510532727,4.440265321,4.390422594,4.32905344,4.261384173,4.200713362,4.13168245,4.064038213,3.987222894,3.926161612,3.850312461,3.777689708,3.703702808,3.629057611,3.562945225,3.510396729,3.46233115,3.375190856,3.286821576,3.217585416,3.166628843,3.128440199,3.085425723,3.041337449,3.007711818,2.990736306,2.960780109,2.912314046,2.874167953,2.842592299,2.811942764,2.772665304,2.736699345,2.704908431,2.672178883,2.633885111,2.589166076,2.558636686,2.52129907,2.451942764,2.432902257,2.408958325,2.383197197,2.358922865,2.339224062,2.324568854,2.292780443
1.73997497,1.761328272,1.778709274,1.799904885,1.823450836,1.846961745,1.854593467,1.878627508,1.907532435,1.943573485,1.964796629,1.983196362,2.017012223,2.047664261,2.077978391,2.114642693,2.160896083,2.20382045,2.235731509,2.254409078,2.292294856,2.347378916,2.395937591,2.431260273,2.477951692,2.541218139,2.602269409,2.660084268,2.712267323,2.764202578,2.828530307,2.902489675,2.979890701,3.035808268,3.076449877,3.148346752,3.241722081,3.324537149,3.380412165,3.413589754,3.488237454,3.559205707,3.608687998,3.705670185,3.775769889,3.859916566,3.938218681,4.031188519,4.115455342,4.197719745,4.270430103,4.352484252,4.451308665,4.519400943,4.594947228,4.647085228,4.696034375,4.766461975,4.824627258,4.865444078,4.92691836,4.979969964,5.096560844,5.198071002,5.264751575,5.287000959,5.427841141,5.597100663,5.757772308,5.926889158,6.100674148,6.229404697,6.350929039,6.483641901,6.431448834,6.498324642,6.624789955,6.7240549,6.881597764,6.987505736,7.092510116,7.142372867,7.20696842,7.323451671,7.420779275,7.500032539,7.538348838,7.336472404,7.513598932,7.49392516,7.676816153,7.791990322,7.882780026,8.012158859,8.096460723,8.199425139,8.176382295,8.015024822,7.90330733,7.898126069,7.878805223,7.855404447,7.886406908,8.002359518,8.090596137,8.144351091,7.999621209,7.898408911,7.9185933,7.911877686,7.810117225,7.619123941,7.704830003,7.620583205,7.420015852,7.236238789,7.076130324,6.930977431,6.815838305,6.746517041,6.656252972,6.628879897,6.620236953,6.600397981,6.505673522,6.411156814,6.435999333,6.478806057,6.402473823,6.231417129,6.045650161,5.879133954,5.747106921,5.642220183,5.55036419,5.458983772,5.371553127,5.257247507,5.137327604,4.955833299,4.823418297,4.784726545,4.728613742,4.666799049,4.612042885,4.501304076,4.422120896,4.36846356,4.31318927,4.251322014,4.197421885,4.122371199,4.040417171,3.966768178,3.896916274,3.844312711,3.795361061,3.735158316,3.685866255,3.601644487,3.520506445,3.440211923,3.33916983,3.274256393,3.205385674,3.14836928,3.096766927,3.063922239,3.026276751,2.97868925,2.950945726,2.923722832,2.886723124,2.858624171,2.811582329,2.784732385,2.747312169,2.723971466,2.695960118,2.662930207,2.624861708,2.581594427,2.546594635,2.516388136,2.47583163,2.414237203,2.379585332,2.356988027,2.345426557,2.324260982,2.30418172,2.286780693
1.71768804,1.730563598,1.7556414,1.776734387,1.793774978,1.811571482,1.828111468,1.853757457,1.889891118,1.917517,1.929276209,1.957735597,1.992855534,2.0203863,2.059558633,2.097221643,2.137748112,2.169531517,2.194536732,2.226127404,2.262784198,2.305235493,2.355135789,2.398508197,2.457837387,2.517692211,2.578665888,2.650077177,2.681873097,2.724244295,2.796376455,2.862190981,2.927051854,2.980318718,3.065053606,3.12367444,3.207695966,3.267841141,3.30089358,3.359954946,3.428810646,3.490317467,3.586663886,3.664763256,3.728880731,3.796252138,3.907030996,3.994268908,4.067752701,4.151589003,4.199369238,4.275120771,4.379604522,4.463240582,4.502205165,4.578950398,4.640141838,4.694354845,4.759278295,4.829107672,4.868968337,4.933491302,5.011530599,5.092148012,5.149239498,5.206969255,5.399491886,5.565988069,5.719538609,5.849212799,6.020256977,6.19301823,6.305947186,6.368012181,6.28214092,6.430655375,6.521655334,6.588005507,6.744444537,6.799035501,6.923988987,6.955519586,7.059082224,7.119124776,7.225653498,7.298418923,7.313417046,7.134010262,7.276304702,7.34150098,7.515909224,7.634707772,7.72298444,7.870752993,7.942754996,8.061843895,8.002832589,7.901830545,7.745424054,7.6826482,7.696890409,7.641298235,7.700419674,7.796768595,7.883458346,7.941170581,7.996121981,7.915482041,7.813528847,7.783412457,7.701183096,7.476484085,7.507781903,7.453536356,7.297938342,7.122213508,6.965797005,6.843451671,6.722628176,6.6417104,6.567037671,6.516526636,6.503360728,6.449683367,6.378214509,6.299314171,6.288095616,6.298202828,6.236022694,6.124417838,5.990976597,5.847593342,5.733130032,5.625309749,5.536389804,5.422815068,5.35012974,5.276155354,5.148118143,4.970886488,4.790721288,4.742823412,4.686094865,4.595512911,4.52347837,4.446713112,4.361234825,4.307965458,4.270677902,4.231190188,4.165786158,4.103060365,4.02202745,3.9574344,3.906275082,3.87725752,3.831907722,3.778075174,3.702180969,3.632834675,3.594896333,3.50782362,3.420851028,3.324134162,3.214291435,3.135696467,3.090837262,3.052936465,3.006975929,2.967898711,2.924653957,2.88658796,2.846547078,2.801052105,2.764873389,2.73936006,2.713764132,2.692418339,2.674944725,2.648387635,2.61495724,2.580020024,2.546184139,2.496994702,2.470324976,2.433533019,2.393692378,2.353143382,2.326716449,2.302972759,2.275389429,2.261507655
1.690662884,1.70865963,1.730848942,1.753521338,1.765818698,1.782123399,1.808793125,1.83671186,1.865539193,1.890366693,1.903980643,1.941578574,1.957124859,1.996011848,2.035457011,2.072649451,2.107321347,2.131906053,2.165394018,2.199317509,2.238237036,2.290742981,2.329632473,2.372654457,2.429167744,2.480124317,2.540524801,2.615775729,2.646320137,2.686919194,2.738514038,2.814963915,2.876465729,2.946510367,2.999782237,3.074444954,3.145718577,3.206762338,3.252184723,3.312242293,3.390043803,3.438024279,3.533557215,3.624727379,3.711752534,3.79253765,3.872922281,3.931931083,4.005750282,4.08959159,4.141922323,4.234739477,4.329386342,4.400562346,4.437246673,4.510843102,4.572767928,4.6631997,4.730375871,4.778271244,4.826707271,4.89452672,4.978192816,5.036398148,5.058537399,5.188894915,5.347676776,5.510531058,5.573774978,5.719921572,5.943123775,6.107660089,6.199643736,6.178393058,6.206179133,6.329483125,6.362555588,6.48494097,6.560522298,6.651214384,6.706861624,6.794009428,6.862432105,6.940451379,7.039225731,7.076851195,7.075817446,6.959401777,7.049941179,7.241705394,7.358861958,7.465040257,7.593345292,7.675709816,7.81661758,7.910042969,7.82204664,7.748132327,7.629481457,7.514462475,7.532061241,7.494793709,7.496510784,7.593828376,7.705305578,7.72613825,7.798943724,7.842899337,7.726889158,7.625291394,7.561624463,7.376928789,7.2926895,7.286992616,7.205734429,7.096279671,6.892836344,6.745087814,6.64516958,6.56726044,6.49275291,6.412813817,6.398811898,6.36551166,6.315478703,6.215698135,6.144354428,6.087638396,6.041192274,5.972599391,5.880695841,5.781866422,5.689732594,5.584803304,5.490336657,5.385059447,5.308827333,5.219844812,5.063978975,4.931411289,4.810264903,4.726200826,4.67400025,4.562563097,4.458382212,4.401758792,4.330963247,4.273578908,4.220096784,4.188513621,4.123725335,4.067141963,4.000326228,3.95062367,3.886799049,3.843837137,3.803573485,3.762343665,3.721594427,3.67534354,3.635542948,3.534608485,3.413289391,3.306527888,3.204284344,3.113021568,3.06551166,3.0365792,3.003904718,2.965716074,2.929101831,2.889836886,2.83647741,2.786356848,2.748120646,2.711816779,2.679758041,2.657546202,2.629412206,2.613538025,2.581804681,2.543638563,2.511602353,2.471226065,2.444348588,2.415746527,2.3686346,2.333499645,2.304672312,2.295829127,2.268771432,2.237446081
1.664458721,1.685529181,1.709500647,1.729472279,1.73946185,1.765085311,1.788235785,1.810142255,1.838408911,1.855056527,1.883045346,1.911209378,1.934960577,1.973547203,2.011470527,2.044099954,2.062632347,2.112054566,2.148621251,2.164743231,2.199330024,2.238725126,2.291576488,2.349676693,2.389432231,2.434439114,2.517802344,2.588084769,2.625687706,2.680318718,2.733770806,2.788629594,2.854797046,2.91290476,2.98224855,3.0585933,3.122911017,3.167700138,3.237051437,3.292736223,3.335149973,3.415487047,3.501130533,3.593982729,3.699500229,3.777364315,3.818128572,3.872211422,3.93071962,4.019244087,4.109192775,4.188753911,4.265666847,4.311604856,4.387726837,4.463921405,4.55068124,4.629756789,4.682688248,4.746275082,4.799289141,4.862315298,4.928032206,4.952043719,5.02440866,5.139933253,5.274671061,5.400453047,5.493402862,5.663846314,5.825233824,5.978624171,6.037362647,6.03009136,6.135791581,6.184225105,6.254717784,6.316557507,6.410543573,6.462381211,6.534345668,6.628607067,6.657557048,6.763612699,6.84286346,6.84783697,6.846485336,6.782890993,6.94500438,7.117054775,7.232544324,7.331123441,7.441619457,7.513533853,7.64809645,7.732383296,7.67630053,7.618047641,7.507363898,7.351825956,7.371499729,7.397671353,7.314235535,7.398687581,7.514737808,7.510692921,7.551066706,7.60403571,7.582181803,7.496455717,7.409372992,7.307212048,7.131622377,7.07897376,7.106196654,7.058804389,6.880704184,6.694313963,6.562875141,6.487038505,6.418941221,6.340366276,6.297607109,6.295251763,6.213400359,6.134422427,6.02841934,5.936836177,5.878475658,5.83966376,5.775986817,5.706072337,5.640435526,5.547042677,5.412908097,5.328961662,5.255485378,5.181440908,5.063505903,4.964411163,4.837122356,4.720093446,4.622678236,4.508575362,4.407993826,4.347700972,4.29523007,4.225032748,4.166349339,4.120744233,4.070278253,4.026550415,3.973133369,3.913478787,3.870642026,3.820166034,3.746862459,3.69130783,3.651644904,3.638003421,3.623235576,3.538060156,3.405104501,3.31177673,3.167174503,3.091205206,3.048513621,3.010097201,2.979810604,2.944310208,2.907333027,2.882600642,2.840980351,2.772217263,2.736806975,2.711293646,2.67776313,2.636625923,2.598614993,2.573952693,2.532149681,2.495923407,2.490601977,2.457429394,2.418972926,2.381667849,2.345554211,2.309508156,2.271216887,2.264188394,2.251911059,2.228074757
1.640667473,1.66333236,1.683416628,1.690860623,1.719069709,1.740330399,1.762414584,1.78544241,1.809028409,1.824031538,1.861346627,1.877824037,1.916898753,1.9488824,1.983486713,2.003931417,2.02557507,2.068211589,2.09994994,2.121185599,2.163701973,2.193014893,2.254041133,2.31563556,2.365590922,2.432754578,2.472054566,2.555395269,2.606992616,2.664925118,2.721688707,2.779153143,2.84315548,2.907040174,2.97406366,3.03868925,3.085983897,3.153558049,3.202782529,3.245711902,3.292848859,3.370500188,3.458223687,3.551158483,3.655256769,3.703940595,3.747768554,3.820794293,3.903108756,3.987833632,4.093063285,4.141844729,4.19489383,4.27121355,4.356731884,4.457681365,4.522114221,4.595485378,4.660181052,4.72514455,4.785672688,4.836276334,4.868392641,4.89655417,4.957490301,5.086796546,5.206050645,5.298847774,5.409476451,5.536124484,5.714352342,5.812588544,5.869016729,5.909332944,5.997214134,6.082752493,6.147913729,6.258309624,6.263488382,6.311303659,6.370467648,6.469992908,6.49966376,6.569225314,6.633743273,6.633533019,6.668873222,6.677140712,6.824423679,6.982349506,7.075972634,7.181988236,7.249412206,7.323203871,7.443957282,7.522607317,7.535267615,7.469778482,7.391986984,7.205639314,7.220692503,7.293175087,7.210672896,7.208808143,7.325529181,7.310966585,7.322102541,7.360734221,7.362423762,7.340990363,7.277488632,7.191049184,7.071634892,6.950133077,6.913428726,6.953439573,6.877430228,6.725566726,6.547123608,6.439143131,6.339445163,6.278071002,6.205923825,6.206564599,6.148582037,6.057912478,5.972764591,5.836199574,5.76931876,5.71645238,5.683062033,5.62538484,5.561490134,5.491718326,5.363330691,5.258726795,5.182677402,5.142789204,5.125135372,4.99769388,4.838509032,4.704394477,4.570773017,4.476954654,4.399698803,4.301102165,4.24262901,4.198355513,4.122333653,4.069970381,4.033015727,3.990672062,3.946844103,3.89961954,3.840603229,3.801230654,3.754379041,3.699292478,3.649169413,3.604978516,3.560314547,3.478560761,3.370527721,3.264014017,3.166954236,3.11057361,3.06813483,3.018041801,2.968209086,2.9202211,2.883216386,2.851901047,2.819446832,2.753497142,2.720512286,2.697894956,2.672636936,2.638300446,2.602412081,2.557700555,2.515569647,2.485303075,2.462472988,2.435618038,2.40329398,2.369393017,2.333664845,2.304249301,2.253885946,2.235090735,2.220588211,2.203875516
1.618255392,1.636359768,1.65174586,1.664759084,1.693073297,1.71387343,1.73473614,1.755290977,1.774842101,1.797852405,1.825330608,1.855639731,1.88701264,1.919589504,1.949703392,1.964971841,1.993085812,2.026300947,2.057083142,2.092218097,2.143049518,2.183418297,2.229909474,2.285679363,2.323645238,2.391609862,2.496333903,2.539410955,2.581516833,2.644895916,2.709529014,2.769298736,2.835463685,2.893751617,2.944385299,3.004177548,3.057146552,3.109089316,3.159392599,3.188572859,3.255098244,3.346751491,3.423321513,3.535244253,3.595266781,3.637642985,3.694641859,3.768801468,3.848049727,3.931215218,4.013592257,4.067269617,4.147561637,4.243930583,4.321842226,4.408959993,4.477610446,4.559824788,4.643741187,4.733179258,4.872990697,4.850919027,4.797416879,4.851817613,4.935606358,5.028300864,5.073247674,5.17974636,5.286154937,5.413571399,5.52961662,5.636936298,5.702420425,5.842031622,5.983795419,6.09482458,6.228350924,6.188740562,6.147510742,6.197358475,6.279572817,6.339272454,6.344648951,6.410123065,6.446942556,6.464941805,6.528133161,6.625831213,6.735729006,6.876456552,6.939780568,7.003407451,7.035621376,7.12184306,7.240881899,7.267664261,7.301572734,7.280039214,7.226945059,7.093343624,7.0850486,7.149599099,7.142057486,7.07038338,7.179019649,7.1672279,7.13281632,7.153241,7.152462559,7.169545701,7.204009845,7.100845188,6.977543699,6.890528555,6.767812774,6.875200033,6.889374661,6.731894372,6.524618915,6.399838138,6.284726545,6.214774519,6.14963581,6.121203955,6.064760753,5.969988736,5.876115306,5.783778733,5.677047265,5.617530349,5.590475157,5.575219223,5.483140461,5.424159192,5.333019065,5.213742439,5.122927704,5.048049727,5.012917275,4.96333236,4.812039548,4.644336907,4.544313546,4.452022027,4.373787493,4.285706061,4.207211214,4.146147428,4.094903008,4.029276209,4.006761503,3.981758792,3.92865963,3.864539652,3.808266656,3.751548121,3.714378207,3.67202453,3.617758959,3.585021901,3.530636185,3.437343457,3.36070335,3.268344249,3.195841642,3.134452463,3.080915273,3.037635476,2.98214092,2.917124859,2.868631263,2.817486963,2.781523508,2.748831505,2.717728922,2.688548663,2.658096867,2.621357474,2.586923366,2.541878937,2.501364983,2.469879438,2.444123316,2.417796504,2.387910392,2.357406032,2.323662759,2.294474991,2.260030871,2.236529974,2.216212924,2.184732385
1.594136248,1.619136457,1.626365191,1.641258187,1.662994452,1.685789496,1.706702265,1.732323224,1.751010805,1.774869634,1.798330483,1.826124067,1.855732343,1.885623462,1.911229402,1.941430896,1.972082934,2.001330775,2.032125485,2.067200367,2.10566935,2.152638605,2.210796379,2.271527262,2.312016186,2.401792166,2.474217179,2.503650244,2.564759084,2.639476868,2.703371574,2.779188186,2.821264027,2.853330274,2.915057361,2.973543031,3.016872888,3.065006049,3.115829961,3.160048392,3.220606566,3.302530558,3.390754662,3.467459847,3.517753118,3.560049226,3.636253807,3.722297776,3.815780735,3.89322181,3.983380752,4.043966459,4.115177506,4.207293813,4.278997956,4.354296442,4.41514747,4.495814943,4.606661383,4.684107463,4.803694464,4.768514455,4.742818406,4.829723416,4.902286096,4.95038922,4.984397814,5.094075341,5.19363314,5.306874974,5.416392307,5.52515623,5.672837178,5.757056443,5.938968754,5.983785407,6.168558675,6.075321013,6.047484878,6.101274874,6.150354178,6.154519211,6.173807517,6.246102374,6.297229152,6.394053648,6.481391682,6.573860915,6.676910433,6.778222853,6.807613366,6.848798131,6.863906387,6.960685829,7.075314338,7.041944016,7.085459096,7.072618581,7.021797172,6.943031997,6.981150557,7.02472571,7.033641483,6.992153853,7.056867048,7.108048892,6.985350632,6.990454299,6.993432898,7.01472863,7.082553085,7.049310417,6.865137875,6.772756247,6.659431813,6.700992032,6.723444162,6.600072588,6.422926036,6.272111301,6.217778149,6.156449043,6.09211881,5.977164908,5.92897668,5.845816195,5.756100288,5.685842893,5.591123441,5.532662801,5.483390764,5.456721038,5.413268533,5.317320095,5.264100788,5.195537942,5.088936632,4.992955655,4.935528764,4.882221851,4.75474782,4.616172876,4.518367194,4.45010471,4.356348922,4.269093488,4.19897376,4.105966376,4.051029995,3.996141171,3.955449501,3.928194068,3.901163906,3.831116766,3.762005757,3.720205248,3.677686371,3.621566059,3.587034333,3.544049894,3.494222185,3.407504902,3.335748196,3.280000834,3.212594385,3.144477076,3.085195444,3.034456635,2.985439907,2.928864044,2.875697301,2.821454257,2.781503483,2.743767886,2.717388511,2.699091402,2.661350799,2.605748613,2.569462267,2.533013224,2.49652163,2.456225439,2.421878937,2.397309249,2.372374119,2.342004923,2.312504276,2.284004839,2.255630554,2.229088482,2.203344875,2.16807726
1.571466355,1.595873347,1.599134788,1.616685996,1.634880481,1.657430228,1.684180051,1.709110175,1.725222143,1.745741938,1.774241375,1.799516916,1.826577114,1.847957949,1.88436444,1.916125318,1.938064328,1.969457261,2.002519711,2.04486588,2.088901589,2.149917817,2.213822536,2.260736724,2.323044512,2.368439364,2.422094197,2.480684994,2.556519127,2.631089233,2.682669058,2.737460264,2.785838722,2.847300488,2.892933128,2.944420341,2.992233115,3.040293688,3.102744149,3.171239414,3.235008969,3.288646281,3.366445288,3.431005799,3.466901673,3.542054983,3.627806099,3.714005256,3.802266906,3.884926787,3.955284302,4.015742355,4.086295107,4.169951191,4.228154019,4.2769655,4.349450586,4.427294648,4.528306704,4.562495515,4.601485128,4.647430645,4.707370573,4.757295899,4.824044053,4.880059238,4.955890868,5.062209336,5.178564933,5.289631638,5.401186434,5.50654374,5.604614743,5.67549539,5.798381377,5.940695841,6.051647407,5.953819198,5.956449877,5.990198156,5.991629886,6.058515706,6.138427266,6.213302741,6.281777982,6.348806474,6.40687414,6.461107171,6.536638438,6.65567978,6.695430312,6.711780068,6.723324017,6.794284761,6.861971549,6.844860874,6.87476701,6.882093363,6.836390639,6.801035418,6.851891869,6.876474073,6.927137791,6.885532518,6.904177548,6.933570564,6.820483918,6.81606608,6.854144591,6.886901673,6.969156064,6.973661508,6.773772475,6.675173334,6.589730091,6.517167411,6.492009511,6.414510867,6.29219557,6.158614159,6.128217429,6.079163155,6.008229945,5.925066956,5.788867381,5.69016812,5.622721622,5.556246298,5.48442201,5.454978933,5.396891244,5.356167035,5.314496683,5.261207292,5.152728714,5.067287973,4.994540069,4.92567686,4.846275917,4.777222477,4.661452589,4.592031204,4.557394352,4.49854324,4.388798131,4.295462851,4.226965083,4.148104793,4.074465813,3.988386801,3.939299987,3.882626507,3.820151016,3.778883651,3.725258854,3.681113012,3.638664219,3.575062367,3.528829002,3.479196529,3.440867715,3.401022068,3.354007759,3.298097701,3.207680948,3.147873681,3.089252847,3.023768721,2.970078845,2.926571274,2.877424388,2.82232531,2.782677402,2.74041133,2.698981269,2.68330733,2.624956823,2.564426182,2.533063285,2.514210504,2.480427183,2.441402528,2.403989821,2.377537858,2.353286054,2.323069542,2.291976972,2.265056944,2.240950315,2.211639898,2.183856326,2.160438029
1.541732927,1.562417922,1.571273622,1.586910016,1.604130825,1.63591423,1.661885612,1.676142839,1.699173168,1.715325185,1.7467031,1.771765884,1.794838764,1.829360477,1.858723458,1.876705185,1.904854199,1.943213049,1.986325143,2.020035877,2.052853031,2.115323516,2.171606525,2.23807434,2.274278086,2.331762546,2.386333486,2.468520295,2.533110842,2.600895248,2.655581327,2.706830754,2.785215469,2.838089358,2.869292061,2.913883442,2.96407409,3.02299028,3.084617246,3.146997622,3.193503817,3.2597789,3.322036628,3.387958784,3.457908306,3.528065579,3.605626799,3.698273747,3.780087606,3.855601352,3.915668933,3.982795044,4.054326478,4.105676025,4.162216845,4.220895248,4.326978432,4.388562847,4.427482375,4.475998498,4.558282925,4.630304952,4.676861207,4.736152851,4.811098411,4.880124317,4.947878687,5.033857578,5.136286346,5.219947436,5.33429811,5.442416253,5.528367611,5.607190355,5.677217471,5.774512536,5.87799758,5.825449084,5.833981895,5.890910684,5.988405991,6.073641483,6.130049643,6.186350173,6.238097701,6.295957615,6.362105044,6.417461933,6.480715865,6.563213049,6.59408285,6.586230862,6.60410496,6.595244253,6.663721997,6.661339118,6.645199616,6.684817488,6.652836344,6.662019941,6.704829169,6.73609695,6.8112002,6.733593926,6.701022068,6.707269617,6.646175796,6.688279171,6.718555755,6.762183472,6.838057653,6.876569188,6.719226565,6.585499979,6.541794669,6.427897042,6.34938217,6.262256894,6.177884944,6.065639314,6.022697426,5.97222644,5.900186892,5.827591673,5.719513579,5.570065496,5.497004714,5.434266405,5.376576697,5.35999416,5.285739435,5.239601185,5.213387009,5.176299695,5.096983855,5.020954487,4.951230237,4.871944433,4.797051437,4.726383547,4.654784531,4.618202828,4.673339452,4.615604689,4.476596721,4.353322765,4.254788703,4.165520838,4.056068583,3.971368737,3.936101122,3.884518794,3.802897668,3.728034709,3.689896124,3.636739393,3.587935422,3.550990781,3.469822702,3.399945768,3.374705269,3.345645155,3.30221768,3.242442952,3.173624797,3.124112469,3.083518418,3.033170081,2.982659046,2.934278086,2.884372784,2.811940261,2.75942931,2.716116975,2.678992115,2.642330316,2.574911351,2.522207668,2.495485378,2.482970256,2.459171499,2.42568854,2.386756497,2.354797881,2.330486004,2.308136498,2.281211464,2.25149806,2.224260148,2.192807142,2.164347754,2.150969088
1.51220725,1.531302824,1.53482458,1.559649577,1.592314046,1.61756706,1.639068041,1.640967836,1.667217054,1.693333611,1.7190622,1.74,1.771247758,1.800147678,1.825155396,1.852097952,1.885157899,1.918901172,1.954018606,1.982235201,2.014832089,2.060131826,2.116229611,2.189085145,2.246749823,2.327439823,2.390160611,2.436373952,2.467276292,2.547353052,2.610439281,2.661698719,2.773155897,2.819769722,2.849305411,2.880105127,2.944713195,2.994753661,3.05395019,3.118265404,3.173769972,3.239581995,3.307203704,3.377799007,3.438977932,3.516671812,3.593972717,3.676079429,3.75444412,3.827289642,3.865908806,3.934394059,4.006996788,4.047100246,4.104840015,4.1725243,4.270500188,4.313667348,4.381063785,4.501341621,4.563456677,4.587655918,4.649858579,4.728763923,4.817946686,4.891553127,4.959780568,5.032768762,5.103479204,5.192584373,5.276445705,5.351701639,5.440093446,5.525501648,5.5591448,5.589896959,5.661185599,5.708818155,5.803267281,5.896144508,5.992886404,6.046806558,6.089145217,6.155192524,6.204602228,6.247246256,6.308592883,6.366883317,6.419997497,6.479519419,6.500627425,6.451352885,6.459502732,6.450859789,6.491020817,6.481316591,6.449961203,6.476463226,6.488332569,6.519440157,6.584448709,6.59410788,6.651594844,6.665681866,6.533482124,6.544648116,6.494612657,6.560885236,6.605934671,6.673841725,6.749067623,6.765132035,6.621120521,6.455345209,6.418192816,6.363281465,6.286911685,6.205630971,6.122538067,6.031813441,5.94997205,5.89569897,5.825031079,5.719463518,5.622694089,5.469601602,5.39200534,5.361493471,5.292652789,5.287038505,5.209995411,5.12126069,5.120309541,5.093619791,4.985464102,4.904033207,4.868034709,4.815431146,4.742963581,4.701538526,4.662568937,4.659878186,4.719933253,4.727352217,4.62275583,4.424200909,4.253414543,4.131164324,4.028367611,3.972354929,3.932188895,3.870479329,3.78034792,3.703495057,3.655291811,3.616782779,3.565851237,3.51006633,3.430875641,3.377571232,3.350956573,3.306124901,3.263087898,3.221752951,3.168110634,3.098924534,3.074772851,3.039915732,2.976231279,2.883809603,2.860108464,2.804281006,2.741277377,2.690050478,2.665310584,2.642740812,2.564180885,2.493315256,2.467769388,2.449632473,2.431245255,2.403346544,2.366927537,2.333457094,2.304927621,2.287809436,2.262158441,2.233964374,2.20533478,2.178519878,2.155739852,2.133598098
1.491957782,1.501464269,1.520667473,1.549827708,1.569466439,1.592699512,1.612953986,1.617899962,1.644604731,1.668483584,1.676696008,1.720796796,1.748172375,1.775397772,1.798157774,1.831132619,1.854933878,1.892964833,1.919349214,1.954446623,2.006597138,2.082699095,2.13512244,2.180702516,2.254879646,2.312091277,2.360307038,2.398065162,2.448821493,2.512122982,2.584920946,2.659716324,2.719793918,2.750385883,2.795177506,2.847645905,2.913165074,2.992495933,3.053589754,3.084724876,3.143228067,3.216441534,3.285797839,3.338876976,3.409257019,3.485464102,3.558004255,3.635613032,3.706508698,3.77472863,3.820696675,3.886831588,3.959814776,4.012057903,4.086560427,4.137354303,4.204280172,4.25589504,4.349425556,4.448435193,4.501233991,4.534679404,4.628124817,4.702442118,4.820174377,4.884727379,4.936942973,5.001485962,5.073115014,5.162467982,5.211529765,5.301731259,5.371785908,5.436726878,5.501302407,5.58567686,5.648858204,5.695757373,5.790429269,5.893806683,5.950815569,5.995279296,6.067834467,6.125824538,6.159522757,6.211427975,6.260707522,6.317551208,6.372858037,6.418020108,6.443130449,6.315053189,6.317433566,6.336474073,6.314382379,6.314652705,6.3014067,6.326211672,6.357033916,6.409181928,6.466215844,6.468405991,6.492169705,6.551498894,6.459527763,6.440980351,6.39901214,6.417574569,6.468966668,6.566106545,6.616988027,6.621971549,6.511014976,6.356650953,6.310099704,6.26120312,6.224210922,6.156909599,6.080509783,5.992994034,5.912779609,5.846414417,5.790396729,5.705368988,5.541025406,5.446351007,5.348342581,5.276683493,5.251860999,5.20627842,5.173926828,5.05239748,5.027309666,4.995458679,4.890561929,4.824259313,4.759140628,4.721755455,4.678465646,4.64652455,4.620800968,4.619914897,4.638164449,4.572725376,4.436100288,4.309957866,4.202978599,4.08545409,3.976973009,3.919788912,3.859400943,3.799098077,3.765274707,3.684024029,3.639460181,3.589544867,3.547071044,3.491959451,3.412090443,3.351359559,3.30985691,3.282891828,3.230858955,3.181679529,3.140279504,3.079543615,3.039297484,2.98943974,2.923352384,2.837068124,2.789493138,2.760122648,2.70953402,2.660206917,2.618484002,2.594820408,2.561913145,2.516137833,2.459063869,2.425105336,2.400275333,2.378256226,2.344282675,2.310632014,2.281076301,2.259047182,2.244432022,2.217837387,2.187350549,2.161679529,2.152380793,2.12164115
1.465495807,1.480471403,1.506022277,1.527067707,1.542884319,1.570670393,1.584384465,1.59719995,1.615782404,1.630264903,1.668531142,1.704211756,1.72160277,1.748860707,1.774479162,1.801616954,1.83187852,1.863554295,1.900569021,1.965197113,2.01085228,2.069831046,2.119128113,2.175243419,2.234577615,2.28373201,2.313260189,2.360594885,2.410194819,2.492489258,2.579301656,2.599671269,2.629477285,2.67417129,2.75265112,2.80698177,2.897799007,2.964141671,2.988771432,3.056067749,3.107184515,3.174265571,3.238688415,3.299777231,3.356240457,3.430284928,3.501618623,3.582473823,3.665258854,3.71924659,3.808301698,3.853576405,3.91742105,3.97234742,4.041786325,4.11476701,4.185637645,4.21645238,4.269231154,4.360108464,4.452417504,4.494280589,4.577143215,4.742177631,4.849900296,4.859794752,4.898514038,4.949668349,5.011778399,5.088010513,5.150703767,5.216976346,5.270891494,5.330260732,5.44127988,5.536680155,5.61082725,5.691667431,5.744228443,5.799815611,5.883461683,5.979427642,6.041905636,6.08131826,6.127699303,6.176240457,6.203638563,6.258337157,6.278003421,6.336689333,6.366863293,6.200029202,6.178002586,6.199461015,6.17341204,6.168778941,6.163062033,6.20247716,6.217084811,6.319864002,6.358297943,6.368785616,6.348123149,6.37102332,6.370365024,6.343472529,6.335673105,6.302125068,6.306119895,6.411775062,6.461242334,6.448226607,6.384081599,6.253133369,6.227166993,6.191996996,6.139673772,6.106028117,6.025823704,5.94262317,5.858591632,5.794862125,5.757466939,5.757532018,5.589331275,5.402558091,5.314293939,5.237381002,5.186847441,5.118509866,5.087357223,4.989516499,4.929969547,4.886972592,4.784293521,4.728631263,4.674610988,4.64596137,4.628940803,4.574490009,4.558420592,4.524234283,4.490748821,4.402920195,4.263979809,4.164699846,4.118433941,4.090172292,4.040287013,3.970432606,3.86326311,3.771847649,3.68612657,3.630624505,3.5908965,3.565035251,3.505585916,3.44531559,3.382955238,3.321618623,3.270694589,3.224263485,3.191366234,3.141851404,3.089843561,3.036321388,2.992278169,2.937486963,2.875965125,2.82618998,2.769488966,2.723127946,2.685717742,2.625474949,2.565324767,2.540604898,2.518365525,2.467486546,2.430669559,2.405604272,2.376549164,2.349676693,2.325267198,2.294625172,2.263392433,2.236347253,2.21465354,2.198273747,2.174970589,2.154343165,2.134581786,2.105864586
1.436988862,1.456557507,1.483334863,1.501874765,1.517258354,1.541455092,1.547982979,1.570044637,1.588201577,1.624012348,1.648103959,1.675694798,1.693791665,1.722498853,1.747005966,1.772181386,1.796463226,1.835562972,1.881498477,1.948454382,2.005408202,2.077370156,2.123783739,2.164347754,2.206340995,2.246657211,2.270611155,2.288112302,2.365848734,2.444641442,2.515674774,2.547155313,2.590652872,2.648407659,2.722412081,2.778412248,2.852809645,2.884082433,2.948650453,3.004335238,3.050768846,3.103785407,3.191306162,3.251681615,3.326704768,3.360615744,3.428823161,3.516909599,3.593394518,3.658035126,3.739763881,3.781559384,3.857471111,3.910197322,3.998671728,4.079649577,4.127917901,4.154001919,4.236531642,4.333023236,4.410038797,4.442688248,4.562377873,4.718178633,4.797622127,4.822209336,4.849186934,4.88579617,4.955868341,4.99694047,5.002955238,5.081432564,5.208491093,5.320531476,5.447780234,5.521747111,5.583849652,5.627106921,5.698488173,5.762049977,5.842432105,5.926366026,5.986678904,6.036914605,6.096396479,6.125126194,6.157437737,6.167637562,6.184117475,6.180390472,6.174503358,6.068855701,6.056180385,6.058342998,6.054841267,6.013466272,6.029277877,6.081961537,6.146672229,6.20147595,6.243999833,6.252174711,6.233694881,6.229795169,6.25048517,6.237602103,6.244222602,6.210541905,6.194792875,6.226015602,6.259743857,6.270684577,6.244815819,6.144036544,6.144897585,6.128770598,6.074637687,6.032529306,5.967808602,5.873742439,5.795798256,5.726246715,5.662497184,5.653598932,5.522034959,5.363488382,5.255865838,5.186522047,5.132401652,5.069247841,5.016867048,4.950649535,4.858750991,4.787402278,4.718881982,4.656153686,4.62027283,4.583868842,4.553634809,4.501384173,4.481034583,4.435271787,4.358311293,4.284922615,4.199852322,4.142493012,4.066035626,4.125735263,4.094147094,4.027388928,3.932709524,3.785406533,3.644235952,3.579645405,3.551003296,3.520508948,3.47681365,3.421321597,3.355682283,3.305506654,3.234603479,3.186933378,3.143505903,3.114155438,3.077496141,3.008510283,2.944595553,2.899776396,2.862083351,2.812390806,2.752786283,2.71375412,2.68114722,2.640042551,2.590627842,2.53250511,2.484216762,2.44481415,2.398215344,2.352572692,2.326471153,2.316706854,2.300862709,2.279053857,2.24969338,2.221864753,2.194011097,2.173548872,2.159614534,2.14587293,2.128341746,2.087512411
1.413350298,1.435396938,1.455060698,1.474949731,1.499184014,1.509609111,1.527956281,1.538686746,1.57472279,1.597107338,1.620833507,1.640046723,1.661517667,1.690828084,1.708772266,1.734010262,1.756084435,1.789294564,1.826839932,1.896509115,1.98245797,2.061628635,2.121283217,2.141427558,2.170870635,2.201349965,2.233055776,2.272903926,2.361358308,2.43949272,2.492406658,2.535090735,2.585331442,2.634758667,2.704673147,2.75570481,2.79685203,2.845548371,2.909010054,2.947626716,3.002928539,3.064492929,3.140674982,3.188082266,3.263293146,3.310339994,3.372560177,3.448113971,3.525474949,3.595682283,3.661939844,3.730089692,3.787041008,3.864779942,3.945532518,4.036317217,4.050832256,4.108934963,4.196528305,4.268705519,4.345085311,4.39204956,4.495286805,4.578237036,4.662543907,4.737401861,4.766016437,4.828401819,4.862222686,4.835683117,4.959612866,5.075695632,5.164177548,5.270651204,5.398913687,5.466805724,5.542051646,5.569469776,5.6385107,5.723538442,5.805777815,5.872528472,5.924709023,5.987019315,6.03249927,6.053201785,6.090694589,6.130983271,6.133153394,6.064175045,5.991299487,5.941869759,5.962181803,5.968466898,5.974877143,5.932393309,5.960857703,6.000110133,6.034128739,6.078569939,6.128878228,6.145510826,6.137651329,6.126893329,6.165489967,6.150679571,6.156076092,6.130810563,6.111960285,6.096026031,6.100471403,6.108741396,6.092361604,6.04438363,6.05403279,6.046824079,6.007258771,5.961801343,5.912619415,5.790704601,5.72539068,5.654840432,5.571862667,5.489590755,5.391226899,5.312974845,5.203044512,5.131065037,5.086904176,5.026476159,4.977066455,4.894441617,4.789282049,4.716912102,4.657377665,4.611697468,4.554493346,4.518652538,4.46374369,4.435927579,4.385736932,4.343530933,4.276657628,4.215573818,4.15536857,4.098527387,4.029143548,4.020100121,4.070032956,3.98450461,3.890969088,3.774663552,3.669276209,3.589327104,3.535091569,3.495233407,3.444346919,3.404298527,3.350148096,3.293960202,3.258134412,3.180445538,3.114746152,3.065947186,3.042613992,2.994250553,2.931737516,2.87927162,2.833741604,2.790491844,2.75030078,2.717471111,2.690686246,2.658444787,2.610031288,2.53512828,2.467126111,2.423413291,2.377074799,2.333912644,2.299015477,2.281897293,2.270007926,2.252211422,2.233759126,2.220503108,2.198726795,2.178076843,2.161626966,2.147109424,2.118084352,2.082323641
1.390259897,1.409523174,1.432125485,1.454217179,1.471570648,1.477187435,1.502357849,1.515283468,1.544984356,1.562410413,1.58498519,1.605289725,1.648226607,1.657280047,1.671755037,1.69988653,1.732062909,1.749418881,1.785675191,1.871503901,1.967066872,2.027419799,2.067503233,2.097031413,2.12501773,2.170475157,2.214788703,2.290747987,2.350835593,2.406317634,2.485445747,2.531581494,2.578505694,2.630951566,2.6688824,2.716822828,2.763714488,2.833631471,2.860651621,2.898880314,2.976106128,3.047369738,3.093718243,3.133876768,3.197255851,3.263698636,3.328291686,3.400050895,3.46205832,3.530458471,3.578884485,3.657527012,3.711885195,3.78280589,3.86544825,3.902017438,3.971636561,4.062809228,4.137214134,4.177014726,4.256190397,4.299134788,4.464759918,4.51261274,4.57037754,4.655430312,4.704584707,4.740683326,4.720624087,4.791775062,4.902543907,4.989060949,5.07614868,5.219947436,5.321127195,5.411323683,5.466505361,5.545943849,5.620596554,5.69472863,5.758698427,5.810526052,5.8616278,5.904221768,5.949296233,5.991747528,6.025030245,6.087087731,6.02647449,5.99954445,5.941003713,5.890527721,5.89072546,5.903368237,5.879674607,5.850912352,5.88515623,5.914366526,5.92117225,5.972719536,6.025653498,6.053539694,6.04929957,6.042501356,6.064287681,6.055552125,6.067917066,6.05305661,6.027448167,6.027205373,6.001541863,5.997279212,5.978028451,5.955168328,5.968126486,5.941269033,5.928143173,5.872445872,5.831411289,5.702725794,5.650547745,5.586072337,5.500866881,5.413133369,5.337176588,5.267339702,5.185353135,5.0907313,5.036608402,4.988237454,4.934988111,4.834802052,4.742452964,4.671186851,4.625248842,4.576930458,4.518429769,4.481199783,4.419082224,4.385524175,4.335821618,4.276124484,4.216670143,4.156029369,4.108852363,4.060844354,3.992686997,3.97204956,3.944694005,3.947650077,3.828568687,3.735173334,3.650050478,3.568103959,3.52848859,3.481984898,3.42211005,3.394191315,3.349139377,3.294788703,3.235882525,3.190410079,3.122883484,3.05713654,3.010395061,2.979850653,2.934025281,2.884350257,2.837708898,2.798083518,2.748956656,2.703984815,2.667936256,2.642613158,2.596437362,2.549525677,2.517001377,2.466770681,2.398152768,2.366512035,2.313347795,2.267071879,2.24442201,2.229121021,2.203480038,2.195327688,2.188847357,2.175866672,2.153116683,2.138604147,2.100490593,2.069377998
1.369637479,1.389884444,1.407145301,1.427940428,1.438713445,1.457731425,1.479965792,1.503494222,1.516314714,1.527207876,1.55003546,1.569539026,1.596293855,1.603324851,1.638980435,1.672701181,1.703918902,1.733286888,1.790498519,1.829095157,1.90843853,1.974683576,2.006386884,2.05350632,2.099769722,2.139357557,2.189690876,2.255598014,2.321167244,2.388195737,2.468059739,2.497785658,2.550739644,2.583952276,2.616937132,2.685640149,2.7456001,2.804859205,2.839155646,2.918286263,2.991121772,3.044218431,3.062870969,3.095582996,3.142562263,3.206514538,3.281430061,3.350313295,3.403402445,3.466318468,3.528225773,3.592130491,3.624952651,3.695422803,3.749906137,3.799420967,3.905068625,4.012801302,4.060186058,4.103836302,4.154777857,4.226809895,4.370090526,4.464001502,4.505824538,4.58247716,4.61645822,4.656882066,4.654626841,4.738493179,4.823963956,4.924440365,5.028876559,5.142391223,5.242352009,5.329639982,5.399529431,5.498433941,5.575226732,5.654772851,5.6844412,5.732722039,5.792646948,5.825143715,5.888900755,5.928666305,5.973743273,6.016174544,5.95518585,5.930736306,5.855272621,5.834705269,5.824057403,5.825406533,5.808713863,5.780447207,5.804135831,5.839836469,5.845808685,5.879206541,5.91028159,5.985560052,5.964069083,5.958990447,5.965761128,5.994480831,5.994017771,5.981928163,5.952332402,5.9582896,5.936343081,5.926070669,5.908604564,5.863182178,5.862363689,5.84266739,5.831704143,5.764500438,5.687179509,5.609868591,5.563057027,5.504769096,5.443565141,5.36493513,5.285476618,5.224412832,5.163767052,5.083502566,5.009265362,4.954404072,4.901069626,4.837312586,4.757641317,4.681546869,4.62791206,4.570460139,4.526061491,4.473895958,4.430986609,4.365297234,4.29995578,4.23944266,4.177460264,4.149881941,4.102306954,4.039984148,3.983956447,3.941885612,3.893732427,3.879780568,3.795388595,3.708661299,3.624084102,3.558750156,3.522701598,3.472994034,3.390439281,3.349279546,3.311664094,3.262459639,3.214686913,3.171104251,3.115003963,3.066795711,2.998520713,2.954537566,2.915497893,2.883091235,2.840419674,2.801187268,2.754070335,2.704082433,2.654061992,2.605085311,2.563732844,2.52332652,2.499625381,2.448275833,2.374128739,2.332691168,2.284825831,2.244739894,2.224340244,2.216698511,2.195380251,2.157083976,2.155719828,2.157416879,2.132942305,2.087837804,2.070296608,2.058735138
1.345763631,1.364701514,1.383221393,1.402151767,1.413210129,1.438172792,1.462069167,1.475034834,1.483875516,1.501844729,1.516645113,1.530226524,1.546393559,1.58123566,1.624277669,1.668360936,1.712354095,1.750768011,1.789169413,1.836098619,1.890001252,1.934442451,1.983641901,2.028914105,2.070566935,2.11064286,2.164900922,2.23126361,2.305045263,2.340205248,2.398032623,2.452761253,2.50767761,2.534289767,2.611931083,2.647273789,2.682709107,2.752545993,2.814826248,2.875955112,2.94075341,2.975908389,3.014364858,3.052666138,3.092611906,3.156569188,3.241634475,3.309438905,3.36070335,3.409206958,3.473216804,3.51609111,3.587617538,3.65986734,3.69306996,3.769875266,3.861853907,3.931483042,3.985671019,4.041806349,4.120759251,4.224569688,4.340877727,4.398832756,4.454787869,4.495028993,4.546711443,4.578472321,4.605292228,4.696565016,4.777097326,4.860425514,4.952947311,5.059573651,5.192141337,5.276187894,5.332310709,5.409075967,5.490431772,5.543505903,5.590009595,5.644497935,5.711839306,5.759724667,5.82059572,5.853628134,5.879922406,5.938771015,5.892014518,5.808093113,5.764132493,5.75373493,5.758025114,5.748150682,5.732276501,5.715588837,5.70934379,5.735950941,5.758918693,5.793538025,5.801237328,5.975758208,5.943096241,5.878976263,5.893028242,5.918438947,5.916504109,5.898149431,5.874077844,5.885704393,5.871582329,5.856746903,5.833929331,5.7796963,5.7640549,5.75241083,5.735940929,5.699767219,5.624744066,5.541067957,5.494008594,5.439214885,5.379720496,5.306334321,5.229388845,5.177438572,5.130509365,5.057608777,4.992672813,4.927856994,4.863296483,4.812334905,4.737822369,4.671106754,4.620285345,4.555224229,4.494345668,4.433294397,4.390768011,4.342840098,4.282374536,4.228995036,4.168732218,4.109926161,4.049753452,3.998020942,3.958478161,3.922587293,3.877840724,3.867413124,3.812286513,3.711016645,3.627380585,3.556234617,3.516576697,3.45852405,3.3938484,3.350941554,3.289697551,3.245218806,3.214584289,3.146241709,3.097397689,3.0585933,3.011243586,2.95499562,2.904697343,2.864686496,2.823849652,2.79023153,2.737865754,2.694718618,2.65248008,2.605263026,2.559692962,2.519952443,2.481448417,2.442226023,2.400625756,2.359198198,2.30185641,2.261873097,2.230855617,2.202946894,2.185062784,2.156653456,2.117516165,2.112637771,2.110567769,2.078831922,2.054925535,2.044375287
1.324047391,1.347841141,1.370836427,1.367687623,1.392327396,1.418216178,1.431329523,1.441644487,1.457533687,1.475027325,1.485690209,1.510299946,1.546911685,1.579400943,1.620793459,1.66771015,1.702424596,1.739229068,1.784108298,1.837297568,1.880159359,1.924165033,1.980157691,2.015860832,2.049496475,2.111408786,2.156042718,2.191881023,2.215702307,2.282335322,2.352948146,2.416379792,2.478247049,2.533000709,2.578470652,2.593083309,2.614143757,2.684381127,2.76240791,2.806631346,2.882520546,2.944432856,2.968559509,3.00421259,3.043334863,3.114851279,3.19510325,3.264474573,3.308567853,3.351379584,3.421466772,3.483834634,3.526558758,3.566832423,3.652425848,3.719847316,3.801333278,3.875350215,3.939760544,4.014495849,4.094447457,4.196988862,4.262986108,4.321586918,4.386034792,4.422283593,4.482508865,4.51963873,4.580612407,4.642902674,4.701556047,4.790057987,4.864685662,5.008629594,5.110930708,5.191543115,5.281168912,5.375295148,5.427568312,5.447169496,5.493903467,5.553820867,5.615998498,5.6725243,5.703016145,5.764825831,5.805324767,5.880818489,5.824044888,5.665408202,5.671798423,5.668541988,5.679843144,5.658905344,5.652607734,5.641416712,5.628568687,5.637799841,5.666028952,5.69719411,5.73209378,5.892472571,5.894965583,5.807962955,5.811940261,5.835658921,5.843152977,5.829974553,5.809101831,5.823882191,5.808533645,5.783868842,5.739247424,5.691014142,5.649624129,5.635824955,5.630440949,5.621687873,5.549828543,5.467091068,5.422214342,5.37417129,5.305841225,5.239040507,5.178820241,5.122702432,5.083567644,5.025825372,4.957019732,4.890584456,4.830599474,4.778651704,4.720536482,4.669329607,4.631406283,4.578237036,4.489502315,4.403010304,4.353850903,4.30079179,4.239392599,4.177592925,4.13151725,4.068851529,4.001905636,3.956082767,3.924674815,3.899151475,3.858227024,3.81023153,3.803738684,3.725569229,3.619889033,3.545611781,3.504389471,3.439966626,3.408816487,3.367947103,3.288173209,3.211906053,3.171775062,3.115236744,3.064608068,3.038353844,3.006032289,2.962246882,2.909440574,2.85033916,2.804759084,2.767258771,2.720384631,2.674484168,2.633434567,2.597856577,2.553142547,2.51168245,2.469463936,2.432003671,2.39668099,2.366074006,2.319738017,2.279476868,2.237809019,2.203705311,2.174229694,2.149892787,2.113453757,2.07006633,2.073460431,2.068897418,2.029697551,2.004704852
1.306956739,1.32618998,1.343157983,1.34658212,1.372933962,1.393003212,1.402830086,1.412073756,1.428426015,1.436660965,1.46223687,1.502603145,1.533570564,1.568237454,1.604694005,1.648414334,1.694705269,1.732130491,1.762792541,1.801021234,1.858941221,1.917311752,1.959097243,1.999753869,2.062529723,2.120196905,2.139307497,2.162898502,2.215079054,2.27792249,2.31279713,2.386573777,2.472012015,2.50322473,2.519692128,2.538617496,2.564588878,2.638095198,2.707794418,2.767073547,2.856236286,2.862851779,2.904039047,2.958822744,3.02326311,3.084166701,3.141335781,3.199758875,3.223072045,3.296398148,3.366152434,3.446329315,3.45314505,3.508154019,3.576894581,3.659574486,3.747685954,3.815375245,3.88200826,3.982126736,4.080961161,4.1413241,4.203529265,4.25891619,4.307232072,4.377980059,4.449937007,4.483545117,4.539254933,4.59284719,4.648797297,4.727492387,4.819395937,4.916280506,5.005090317,5.103446665,5.181843895,5.277977556,5.331499729,5.343158817,5.388113137,5.438629177,5.515940094,5.551645739,5.573424555,5.603803763,5.645746944,5.757849902,5.689617454,5.552088774,5.562641525,5.567039339,5.553698219,5.531103417,5.56589796,5.556536648,5.545818698,5.539005465,5.548266656,5.57157482,5.609703392,5.786179133,5.817174085,5.723811272,5.733805849,5.770239873,5.771216053,5.760225272,5.74200826,5.754313128,5.7457653,5.712515122,5.66428935,5.602830086,5.551645739,5.5187585,5.517574569,5.516916274,5.465058612,5.396187894,5.343083726,5.300517292,5.237223312,5.183550957,5.127505736,5.075943432,5.033499645,4.976070252,4.890914855,4.840729214,4.792423345,4.743884694,4.696439865,4.641673689,4.608218264,4.612500939,4.615882525,4.497249176,4.327576655,4.243182178,4.196550832,4.14262317,4.086420258,4.030432606,3.987473197,3.942421259,3.904205081,3.871237746,3.832115473,3.78643027,3.745650995,3.687916232,3.612384965,3.579137291,3.504236786,3.429669184,3.409444746,3.39163072,3.315754036,3.201230654,3.121223979,3.085370656,3.033405365,2.999919903,2.95856243,2.92463143,2.903621042,2.857184932,2.78512536,2.72690501,2.691725001,2.650460139,2.608689667,2.570893997,2.540154353,2.500761754,2.462663218,2.423981478,2.381863085,2.34364941,2.314641859,2.28696842,2.243110425,2.202095866,2.166708106,2.132752075,2.103872179,2.067230403,2.030350841,2.003193025,1.97954445,1.957502816
1.285222978,1.306646364,1.310475992,1.329992074,1.332124651,1.360491427,1.3788411,1.379564474,1.386252555,1.420218597,1.449736765,1.483377414,1.512627759,1.548741396,1.583596012,1.626838263,1.669554879,1.703603521,1.736260481,1.762810062,1.816109466,1.867816945,1.905945518,1.94553085,2.022659046,2.079672938,2.092576029,2.139049685,2.196561679,2.229093488,2.300609904,2.365177923,2.406648033,2.448255809,2.475443661,2.498561595,2.533331108,2.588450211,2.643306495,2.699256602,2.775443661,2.808911602,2.82748154,2.892014518,2.969773476,3.03920237,3.088081432,3.128224938,3.155345209,3.236958825,3.301834717,3.356638438,3.383976472,3.451763381,3.486280088,3.60167202,3.670963247,3.733486296,3.81830879,3.915038171,3.999435151,4.067294648,4.124636436,4.197960035,4.277656335,4.3368829,4.403358225,4.418468983,4.460116808,4.532409161,4.614213007,4.685614284,4.762684911,4.832812148,4.928452714,5.022598974,5.10762171,5.170945726,5.211639898,5.242467148,5.266926703,5.324566351,5.382085854,5.414657711,5.428929957,5.443172166,5.423746193,5.50741229,5.475498728,5.401907305,5.447715156,5.46321138,5.420477243,5.401907305,5.413228484,5.444045722,5.441299904,5.438619165,5.414715281,5.470477661,5.51356973,5.6621793,5.689209461,5.642090025,5.674504193,5.704417838,5.700733386,5.684989362,5.67306245,5.686358517,5.677590422,5.641161403,5.59137124,5.526392725,5.470752993,5.420957824,5.404988528,5.3920554,5.381895624,5.341279046,5.295008135,5.244850027,5.199642902,5.150999124,5.091141796,5.035499562,4.983266447,4.92867298,4.854676067,4.795722331,4.747909557,4.71592591,4.660128489,4.613572233,4.583535939,4.610020441,4.604593884,4.530006258,4.34884986,4.188068082,4.136227942,4.082357849,4.041190605,4.00768512,3.96156439,3.917598765,3.868259146,3.834831254,3.784325226,3.742399566,3.697582913,3.650080514,3.620349589,3.567645905,3.478530725,3.431674106,3.417214134,3.39236661,3.297499479,3.183366568,3.119496892,3.075188353,3.020945309,2.965310584,2.928668808,2.892928121,2.871412123,2.852233949,2.781278211,2.714414918,2.659856493,2.648420174,2.596437362,2.558891994,2.518433107,2.487470694,2.452658629,2.410082183,2.369725919,2.332273163,2.293794168,2.26060156,2.250234033,2.198413917,2.15489383,2.116945476,2.084794126,2.052552668,2.016744399,1.983201368,1.950657044,1.927689291
1.261629469,1.275416128,1.281526011,1.304936799,1.307747695,1.324012348,1.347613366,1.342189312,1.37497643,1.394735305,1.4258479,1.469545701,1.49432314,1.526985107,1.559449335,1.595713153,1.631994493,1.654346502,1.686577948,1.726508698,1.765057778,1.820617413,1.880522298,1.946644696,1.992908097,2.028040549,2.043361562,2.106695591,2.158983772,2.217579575,2.272213091,2.325387343,2.352980685,2.423535939,2.431185182,2.487145301,2.530099704,2.567957949,2.606194151,2.672679488,2.7297935,2.75373493,2.790261566,2.856524133,2.932508448,2.983527596,3.020384631,3.049609945,3.106536231,3.170000417,3.24316132,3.275530433,3.337132368,3.400431355,3.458749322,3.518654207,3.58414334,3.657759793,3.780730883,3.866386884,3.947359726,4.012803805,4.067930416,4.164004005,4.217666347,4.276542489,4.305482458,4.367049351,4.413197614,4.489272037,4.567769388,4.632863043,4.700562346,4.755799091,4.848318385,4.939583664,5.019287472,5.057864086,5.099401777,5.125583413,5.156726044,5.220638271,5.262859288,5.295708982,5.303488382,5.299904051,5.262921864,5.265147053,5.267672604,5.277629636,5.317477786,5.334070335,5.298524884,5.260318718,5.277511994,5.291125944,5.312509282,5.349932001,5.329139377,5.397076467,5.450929039,5.566686413,5.563527596,5.573947687,5.609968712,5.633244337,5.629319595,5.621117183,5.588770598,5.571477202,5.555437821,5.538154437,5.488802303,5.430246548,5.365433232,5.327307163,5.307282967,5.310757165,5.314028618,5.287383922,5.242492178,5.201247341,5.156117809,5.126274248,5.066634684,5.014774519,4.961277377,4.902048308,4.845274707,4.78532727,4.735632222,4.667392266,4.630032122,4.584439531,4.561231488,4.556440699,4.521340787,4.419072212,4.265331442,4.139061366,4.067289642,4.013937675,3.978619999,3.957114013,3.940023362,3.876529139,3.844678153,3.800997872,3.760774269,3.710853949,3.660655792,3.620314547,3.588866547,3.56510033,3.480921113,3.42715865,3.399845647,3.364648116,3.278754328,3.196590046,3.1565792,3.064728213,3.001486797,2.942778357,2.9150899,2.883146302,2.853828376,2.823644404,2.77923324,2.715023153,2.667403112,2.616534145,2.577231655,2.545763631,2.515426974,2.470492679,2.433675691,2.392956489,2.356927955,2.326055651,2.285466605,2.248003838,2.213311919,2.192914772,2.170983271,2.129931167,2.08933211,2.041163906,2.006922531,1.97513412,1.945278044,1.912448375
1.238123566,1.245970548,1.270174795,1.290409245,1.293110008,1.314738643,1.314525885,1.329809353,1.355658087,1.387862,1.422481332,1.450042134,1.475633057,1.505711902,1.535422803,1.561163906,1.59222644,1.624372784,1.652914772,1.670606149,1.725860415,1.820397147,1.867221226,1.916508281,1.950336657,1.967610029,2.02368028,2.070158942,2.112687831,2.180940303,2.230600309,2.254814568,2.278237871,2.344267657,2.423898878,2.461962371,2.489816028,2.538717617,2.596152017,2.643013641,2.673698219,2.685469943,2.741953193,2.801004547,2.877557048,2.912058738,2.953210963,3.022712444,3.060500605,3.126177464,3.171089233,3.203057862,3.287529932,3.351852655,3.387858663,3.47929665,3.568319219,3.649840224,3.729659171,3.817617955,3.887101915,3.962085019,4.02675316,4.080275333,4.133779984,4.203143799,4.251392099,4.319947436,4.377762296,4.420876893,4.479365066,4.544556339,4.618655876,4.668618748,4.74964165,4.841187268,4.909041759,4.955252597,4.99310083,5.026248383,5.057230821,5.105504151,5.15324684,5.176444871,5.184987693,5.184657294,5.140569021,5.092991531,5.123483376,5.144759084,5.177350966,5.181338284,5.149685036,5.1247449,5.144428685,5.160075091,5.20978766,5.239300822,5.239641233,5.316726878,5.367015143,5.436549164,5.487318009,5.516713529,5.555773226,5.576197906,5.567244587,5.541971549,5.519874849,5.494969755,5.462467982,5.442436277,5.458488173,5.383812941,5.296184556,5.265527512,5.246642193,5.253415377,5.263597681,5.242131743,5.207549956,5.171518919,5.128959993,5.102080013,5.063653581,4.998862793,4.948296692,4.87891035,4.818011764,4.756437362,4.715099912,4.656531642,4.587818614,4.55692128,4.528972508,4.472281507,4.409941179,4.313261858,4.189352134,4.128536148,4.054564265,3.983623545,3.934103709,3.898217847,3.882328647,3.842938551,3.796101957,3.753915982,3.721311585,3.678482333,3.633983563,3.608840682,3.564597222,3.528225773,3.480390472,3.438484836,3.381606107,3.340231113,3.30394727,3.249278712,3.173201785,3.05959451,3.001817196,2.929174419,2.888622919,2.867882858,2.833989404,2.800033374,2.756285512,2.693624797,2.656567519,2.61433649,2.561910642,2.526365191,2.50352259,2.472422511,2.429670852,2.39008552,2.355851654,2.31436152,2.27567978,2.242164282,2.209922823,2.17831463,2.153009053,2.113799174,2.081655334,2.047987151,2.009966209,1.972425848,1.943162989,1.904351091
1.213711568,1.228108965,1.240273664,1.251499729,1.268179884,1.266525385,1.285650995,1.313589754,1.336079429,1.369842727,1.401415878,1.440871053,1.462076676,1.48406074,1.507388928,1.52893246,1.554220516,1.586356848,1.610773852,1.639410955,1.685474115,1.764599725,1.818875308,1.881160569,1.908656293,1.938041801,1.981221476,2.023720329,2.079805598,2.150916524,2.182697426,2.214538401,2.262754161,2.289721747,2.348297526,2.386090693,2.407041008,2.471696633,2.528412665,2.570608652,2.600947812,2.628345918,2.683550123,2.742466313,2.811725001,2.85344291,2.909700889,2.960174377,3.010572775,3.052165533,3.100123483,3.166045638,3.251578991,3.285720245,3.363213883,3.437416044,3.519365066,3.572053732,3.658475658,3.759072212,3.83421551,3.886513704,3.949627467,4.007277127,4.096795294,4.163948938,4.223606024,4.245389846,4.295022319,4.330164782,4.390292437,4.463425806,4.516289683,4.575268449,4.660621584,4.747774394,4.790828918,4.836992199,4.898761837,4.943363231,4.954138751,4.981479287,5.006624671,5.026368529,5.053090818,5.068757248,5.037714739,5.011843478,4.988773101,5.029226983,5.040825998,5.047253765,5.024018189,5.028816487,5.044613074,5.073888449,5.129976221,5.153637312,5.165038588,5.227223729,5.300584873,5.3804689,5.439207376,5.469561554,5.502063327,5.508208252,5.495535439,5.46083601,5.459444329,5.44603062,5.416469901,5.474535063,5.577777314,5.533005715,5.306759835,5.221341621,5.197933336,5.205917984,5.217361812,5.193913479,5.168162363,5.136816987,5.101877268,5.080448876,5.043206374,4.995456176,4.942131743,4.865599266,4.797902465,4.732020358,4.670022944,4.625046097,4.568575362,4.508352593,4.496645947,4.44196988,4.37578741,4.282249385,4.20983188,4.117252513,4.029576572,3.965471612,3.896798632,3.860116808,3.829337116,3.80198907,3.779877352,3.710588628,3.669421384,3.636839514,3.595477035,3.56431438,3.524326061,3.506251721,3.487659255,3.432983188,3.377806516,3.330842268,3.284744066,3.243286471,3.161134704,3.073553878,2.993021568,2.942575612,2.872691168,2.837113178,2.821651996,2.781966543,2.747199533,2.680729214,2.627830295,2.595751533,2.56141254,2.508405991,2.478469818,2.447257102,2.409436402,2.370912352,2.349824371,2.320864378,2.28532143,2.253255183,2.203722832,2.172540153,2.148861541,2.119523591,2.084033207,2.066507029,2.026836594,1.989834383,1.954506696,1.898461474
1.191592341,1.201181428,1.212740395,1.227863669,1.232216428,1.25553961,1.279330858,1.304063243,1.33718076,1.367522423,1.396850361,1.425159568,1.436180385,1.459080556,1.479375078,1.49184014,1.508930791,1.53830879,1.581395853,1.612020358,1.664734054,1.725284719,1.791149305,1.847487381,1.861466772,1.919409286,1.957920821,2.013380335,2.064860039,2.116547495,2.139229903,2.176149514,2.211514747,2.235811606,2.286830754,2.314489174,2.357648826,2.426386884,2.462207668,2.51135205,2.543663594,2.596327229,2.661833883,2.716855367,2.762618164,2.807041842,2.856654291,2.896407326,2.938212841,2.984105795,3.033885946,3.11769972,3.16989529,3.210401735,3.294876309,3.358310458,3.441190605,3.526746485,3.637873264,3.700796796,3.745916316,3.822258562,3.905096158,3.954936381,4.051563139,4.130721288,4.161363314,4.187409787,4.215839139,4.25327187,4.326540403,4.384838346,4.430313295,4.489997914,4.581017897,4.636955488,4.677306746,4.718939552,4.792558508,4.834151266,4.852077927,4.859957449,4.885736098,4.898278753,4.913915147,4.929621626,4.923391598,4.929223645,4.903324851,4.908974177,4.925924659,4.924603062,4.939723833,4.953623128,4.954734471,4.993448751,5.050815569,5.08136248,5.127575821,5.180307038,5.249290393,5.31916983,5.380846857,5.419731342,5.445177089,5.426459472,5.394460807,5.38819824,5.385742773,5.390042969,5.376171207,5.405138709,5.500954487,5.503184681,5.275269284,5.183435818,5.166690584,5.16148179,5.172685328,5.144959326,5.129020066,5.103464186,5.085632639,5.066194151,5.081347462,5.060955321,4.957265029,4.836311376,4.770133912,4.714762004,4.649225314,4.592429185,4.560087606,4.485652664,4.433940178,4.408028868,4.354208836,4.292186392,4.213185933,4.141784656,4.065865421,3.991996162,3.910339994,3.834953903,3.797981728,3.742557257,3.718120229,3.671799257,3.627650912,3.606955905,3.571197697,3.526225856,3.477579575,3.457733094,3.4500413,3.414958909,3.380512286,3.341017062,3.290691252,3.238583288,3.191996996,3.164105795,3.026149097,2.928831505,2.859064703,2.803775395,2.782482166,2.758117726,2.695246756,2.639471862,2.582227692,2.559692962,2.543350715,2.508368445,2.471188519,2.438213675,2.398260398,2.354908014,2.319315006,2.288630428,2.262018272,2.24010179,2.215444495,2.182209336,2.142531392,2.117448584,2.078614159,2.042019941,2.013900964,1.984653123,1.958443953,1.898804389
1.173290226,1.1766618,1.19592007,1.203716991,1.212044554,1.23303742,1.266017271,1.296681824,1.323386592,1.346889992,1.372628593,1.40220433,1.417157399,1.424699011,1.444009845,1.463936423,1.480478912,1.512522632,1.555284302,1.583433315,1.629403863,1.713087481,1.775860832,1.796353093,1.844714029,1.896997205,1.913694881,1.953295232,2.021022068,2.068872387,2.098753494,2.111821785,2.144694005,2.17007968,2.212505945,2.262986943,2.319642902,2.376699345,2.401829711,2.456608402,2.501592758,2.555400275,2.630751325,2.669570731,2.707156147,2.756786117,2.813532185,2.870173126,2.904724876,2.92433357,2.988483584,3.059739685,3.107992992,3.168556172,3.227274624,3.301148888,3.394474156,3.4684135,3.55910058,3.635775729,3.735371073,3.790943223,3.833049101,3.902916024,3.995537942,4.073382003,4.109976221,4.116303867,4.14188728,4.215188353,4.276827834,4.329095991,4.368130658,4.433326937,4.474226357,4.521974052,4.562024947,4.606871637,4.669101831,4.721803012,4.738773518,4.752402486,4.777775646,4.795847482,4.80170456,4.822021609,4.829455592,4.811035835,4.816469901,4.81434233,4.832942305,4.836641775,4.843730341,4.83919486,4.892414167,4.947638396,5.000111802,5.030621167,5.063107922,5.113000709,5.170337491,5.256569188,5.306859956,5.337169079,5.350182304,5.333845063,5.321527679,5.325122022,5.317400192,5.334711109,5.348738058,5.357518668,5.371230237,5.330653707,5.169594093,5.142961912,5.139342539,5.116267156,5.114807893,5.145147053,5.128126486,5.105812023,5.089594927,5.058259564,5.112084602,5.20349005,5.08625339,4.877964207,4.738620834,4.701388344,4.62091861,4.558167786,4.518021776,4.468682158,4.411460515,4.356511618,4.322933545,4.279974135,4.22525802,4.165135372,4.079934921,3.98877477,3.907651746,3.823732844,3.765349798,3.727148638,3.669358809,3.630193984,3.580866881,3.555148304,3.539141463,3.503788745,3.469417212,3.428955822,3.409379667,3.395019816,3.372760419,3.345812857,3.292641108,3.228496099,3.201025406,3.150076342,3.039014643,2.927524926,2.832918109,2.778039297,2.728056401,2.709218639,2.65318343,2.610627008,2.564701514,2.530540236,2.505865421,2.483175504,2.453442076,2.408600392,2.379507739,2.349921989,2.312248968,2.271557298,2.236004339,2.209419715,2.196899587,2.169466439,2.139743023,2.101254015,2.078331317,2.040077594,1.995523758,1.96092445,1.941220642,1.913960202
